11.4889 -18.1877 2.6414
2.8648 -4.53693 -0.658826
11.4696 -18.1711 3.40339
3.52121 -5.58078 -0.57732
11.4578 -18.1596 4.17376
5.95705 -9.44501 -0.585221
11.5144 -18.2634 4.98447
9.58603 -15.2106 -0.313829
11.4876 -18.2349 5.77477
1.7163 -2.73178 -0.864456
9.54724 -15.2019 0.313341
1.9728 -3.14247 -0.856614
11.4965 -18.3198 1.13349
2.39602 -3.8181 -0.876195
11.497 -18.3278 1.89285
2.81769 -4.49353 -0.840053
11.399 -18.1856 2.6353
2.84579 -4.54185 -0.658094
11.3872 -18.1809 3.39776
3.50057 -5.58905 -0.576971
11.3735 -18.1662 4.16612
5.90709 -9.43866 -0.583546
11.4351 -18.2787 4.97772
9.5191 -15.2219 -0.313375
11.4095 -18.252 5.76752
1.70676 -2.73776 -0.864456
9.48142 -15.2148 0.312922
1.95461 -3.13776 -0.853464
11.4155 -18.3327 1.13182
2.38267 -3.82644 -0.876195
11.4245 -18.3543 1.89145
2.80095 -4.50166 -0.83974
11.3155 -18.1933 2.63067
2.82887 -4.55007 -0.657851
11.307 -18.1937 3.39275
3.47894 -5.59785 -0.576622
11.2956 -18.1824 4.16078
5.85198 -9.42359 -0.581348
11.3455 -18.2771 4.96647
9.43849 -15.2109 -0.312468
11.3335 -18.272 5.76131
1.69312 -2.73712 -0.862385
9.41143 -15.2206 0.312363
1.95491 -3.1628 -0.858413
11.3337 -18.3365 1.12972
2.3693 -3.83473 -0.876195
11.3374 -18.3567 1.88762
2.79144 -4.5215 -0.841618
11.2373 -18.209 2.62726
2.80775 -4.55147 -0.656632
11.2196 -18.1874 3.38462
3.45101 -5.5964 -0.575228
11.2145 -18.1933 4.15429
5.82115 -9.44736 -0.581557
11.2592 -18.2801 4.95657
9.37436 -15.2199 -0.312014
11.2546 -18.2799 5.75199
1.67851 -2.73479 -0.859797
9.34103 -15.2193 0.3117
1.94135 -3.16428 -0.857064
11.2633 -18.3657 1.1291
2.3559 -3.84298 -0.876195
11.2607 -18.3758 1.88553
2.76921 -4.51894 -0.839427
11.1561 -18.2123 2.62238
2.76777 -4.52013 -0.650782
11.1354 -18.1927 3.37836
3.42729 -5.60161 -0.574531
11.1336 -18.1969 4.14666
5.80542 -9.49217 -0.583127
11.1782 -18.284 4.94757
9.30241 -15.2219 -0.311386
11.1666 -18.2795 5.73957
1.67345 -2.74694 -0.861867
9.26289 -15.2108 0.310862
1.92928 -3.16938 -0.856614
11.1888 -18.3879 1.12805
2.34315 -3.85077 -0.876195
13.755 -22.6142 2.31573
2.73597 -4.49988 -0.834109
11.0729 -18.2189 2.61775
2.75816 -4.53994 -0.652245
11.0555 -18.2045 3.37335
3.40456 -5.60613 -0.573833
11.0435 -18.192 4.13674
5.73288 -9.44749 -0.57915
11.0991 -18.298 4.94082
9.23989 -15.2389 -0.311072
11.0767 -18.2754 5.72611
1.65685 -2.74119 -0.858244
9.20146 -15.2294 0.310583
1.92526 -3.18777 -0.859763
11.0956 -18.3789 1.12512
2.32969 -3.85892 -0.876195
13.779 -22.8326 2.33316
2.71208 -4.49587 -0.831606
10.9898 -18.2251 2.61312
2.74844 -4.55974 -0.653707
10.9766 -18.2176 3.36866
3.38086 -5.61116 -0.573136
10.9567 -18.1918 4.12796
5.73798 -9.53075 -0.583023
11.007 -18.2898 4.92823
9.17324 -15.2487 -0.310618
10.9909 -18.2775 5.71473
1.65622 -2.76187 -0.862903
9.1318 -15.234 0.310025
1.91012 -3.18778 -0.857963
11.0068 -18.3764 1.12261
2.27989 -3.8064 -0.862457
13.7974 -23.0447 2.34989
2.70348 -4.51718 -0.833796
10.9098 -18.2361 2.60922
2.73556 -4.57442 -0.654438
10.8886 -18.2151 3.36115
3.36023 -5.62121 -0.572962
10.884 -18.2148 4.12453
5.76306 -9.64846 -0.588989
10.9191 -18.288 4.91743
9.10048 -15.248 -0.309955
10.8835 -18.2428 5.69195
1.64558 -2.76597 -0.862385
9.06834 -15.2486 0.309676
1.88902 -3.17768 -0.853464
10.916 -18.3701 1.11988
2.30269 -3.87509 -0.876195
13.8064 -23.2435 2.36523
2.6766 -4.5079 -0.830354
10.8268 -18.2417 2.60459
2.71452 -4.5754 -0.65322
10.8068 -18.2224 3.35552
3.34567 -5.64148 -0.573833
10.8004 -18.2189 4.11689
5.70898 -9.63416 -0.586895
10.7698 -18.1818 4.87874
9.02988 -15.2505 -0.309361
10.7548 -18.1709 5.65778
1.63199 -2.76504 -0.860315
9.00083 -15.256 0.309187
1.88484 -3.196 -0.856614
10.7607 -18.2462 1.11015
2.28915 -3.88311 -0.876195
10.7645 -18.2673 1.85502
2.66285 -4.52062 -0.83098
10.748 -18.2537 2.60094
2.71162 -4.60709 -0.656388
10.7252 -18.2224 3.34895
3.32596 -5.65312 -0.573833
10.7158 -18.2209 4.10888
5.77653 -9.8262 -0.597363
10.7033 -18.2142 4.87739
8.96609 -15.2579 -0.308908
10.6769 -18.1765 5.64847
1.62037 -2.76739 -0.859279
8.92696 -15.2461 0.308384
1.87817 -3.20896 -0.858413
10.6859 -18.2647 1.109
2.27558 -3.89108 -0.876195
10.6846 -18.2772 1.85223
2.63588 -4.50897 -0.827226
10.6703 -18.2601 2.59679
2.68131 -4.59035 -0.652732
10.6466 -18.2341 3.34426
3.30219 -5.65781 -0.573136
10.6326 -18.2173 4.1001
5.73385 -9.82805 -0.596316
10.6193 -18.2092 4.86659
8.89666 -15.2615 -0.308349
10.5978 -18.187 5.64018
1.61507 -2.77943 -0.86135
8.85962 -15.253 0.307895
1.86305 -3.20876 -0.856614
10.598 -18.2604 1.10649
2.23705 -3.85445 -0.866273
10.6009 -18.2729 1.84822
2.60427 -4.4908 -0.82222
10.5807 -18.2526 2.59045
2.67124 -4.60998 -0.654195
10.572 -18.2524 3.34081
3.27642 -5.65666 -0.571916
10.5512 -18.2238 4.09324
5.76654 -9.96383 -0.603329
10.5401 -18.2192 4.85939
8.83032 -15.2699 -0.307895
10.5188 -18.1971 5.6319
1.5986 -2.77333 -0.857726
8.79934 -15.2717 0.307651
1.85183 -3.21524 -0.856614
10.5122 -18.2592 1.10418
2.22945 -3.87245 -0.868563
10.5222 -18.2839 1.84561
2.59646 -4.51356 -0.824723
10.5001 -18.2602 2.58631
2.64722 -4.60551 -0.652245
10.4905 -18.2584 3.33518
3.24375 -5.64561 -0.56965
10.4738 -18.2367 4.08789
5.69592 -9.92154 -0.599561
10.458 -18.2238 4.85084
8.75905 -15.2694 -0.307267
10.4379 -18.2035 5.62259
1.58795 -2.77722 -0.857209
8.73109 -15.2762 0.307127
1.84157 -3.22338 -0.857064
10.4316 -18.2663 1.1024
2.2354 -3.9143 -0.876195
10.4405 -18.2894 1.84247
2.57873 -4.51916 -0.824097
10.4235 -18.2743 2.58314
2.63211 -4.61645 -0.652489
10.4033 -18.2537 3.32767
3.2112 -5.6344 -0.567384
10.3985 -18.2526 4.08331
5.67608 -9.96739 -0.601131
10.3731 -18.2229 4.84095
8.69482 -15.2808 -0.306883
10.3552 -18.2063 5.61223
1.57634 -2.77938 -0.856173
8.65602 -15.2683 0.30636
1.83895 -3.24505 -0.861113
10.354 -18.2783 1.10094
2.22172 -3.92208 -0.876195
10.357 -18.291 1.83899
2.54835 -4.50235 -0.819404
10.3469 -18.2881 2.57997
2.61989 -4.63252 -0.653463
10.3269 -18.2675 3.32361
3.18563 -5.63516 -0.566338
10.3192 -18.2615 4.07721
5.62554 -9.95932 -0.599456
10.2912 -18.2268 4.8324
8.62964 -15.2902 -0.306464
10.2935 -18.2457 5.61327
1.56663 -2.78487 -0.856173
8.58992 -15.2758 0.305906
1.82093 -3.23955 -0.857963
10.2833 -18.3021 1.10021
2.20801 -3.92981 -0.876195
10.2716 -18.2888 1.83515
2.53745 -4.51983 -0.820968
10.2616 -18.286 2.57461
2.60953 -4.65202 -0.654926
10.2456 -18.2724 3.31798
3.1864 -5.68274 -0.569999
10.2295 -18.2511 4.0669
5.71374 -10.1984 -0.612645
10.2513 -18.3051 4.84365
8.56156 -15.294 -0.305941
10.2845 -18.3793 5.64329
1.55784 -2.79201 -0.856691
8.52389 -15.283 0.305452
1.80961 -3.24589 -0.857963
10.232 -18.3606 1.10157
2.19428 -3.93749 -0.876195
10.2426 -18.3872 1.84143
2.51781 -4.52176 -0.819717
10.1784 -18.287 2.56974
2.57783 -4.63335 -0.651026
10.1703 -18.2874 3.31422
3.23723 -5.82094 -0.582723
10.1552 -18.2679 4.06271
5.61602 -10.1066 -0.605946
10.1287 -18.2351 4.81575
8.49841 -15.3063 -0.305592
10.2034 -18.3847 5.63397
1.55089 -2.8025 -0.858244
8.45984 -15.2934 0.305068
1.79732 -3.25048 -0.857513
10.1784 -18.4154 1.10272
2.18053 -3.94513 -0.876195
10.2082 -18.4769 1.84683
2.49915 -4.52533 -0.818778
10.103 -18.3016 2.56681
2.56164 -4.64232 -0.651026
10.0892 -18.2916 3.30859
3.2371 -5.86884 -0.586384
10.0762 -18.2757 4.0566
5.64144 -10.2363 -0.61254
10.0481 -18.2397 4.80765
8.42467 -15.2991 -0.304859
10.1084 -18.3643 5.61689
1.53553 -2.79773 -0.855138
8.39582 -15.3036 0.304684
1.79065 -3.26528 -0.859763
10.0959 -18.4176 1.10073
2.16674 -3.95272 -0.876195
10.1312 -18.4897 1.84456
2.48334 -4.53403 -0.818778
10.0219 -18.3054 2.56243
2.55114 -4.66168 -0.652489
10.0082 -18.2955 3.30296
3.2099 -5.86787 -0.585164
10.0001 -18.2884 4.05164
5.62579 -10.2928 -0.614738
9.96566 -18.2404 4.79866
8.35493 -15.2986 -0.304265
10.0313 -18.3757 5.60964
1.52021 -2.7929 -0.852032
8.32515 -15.3012 0.304056
1.77924 -3.27151 -0.859763
10.0267 -18.4439 1.10021
2.15293 -3.96026 -0.876195
10.0295 -18.4567 1.83777
2.45995 -4.52878 -0.816275
9.9447 -18.3159 2.55901
2.53106 -4.66358 -0.651514
9.92734 -18.2991 3.29733
3.17895 -5.85978 -0.583246
9.92033 -18.2938 4.04515
5.63171 -10.3896 -0.619344
9.89079 -18.2545 4.79326
8.29195 -15.3101 -0.303916
9.93763 -18.3563 5.59308
1.51045 -2.79819 -0.852032
8.25745 -15.3037 0.303532
1.76226 -3.26741 -0.857064
9.95756 -18.47 1.09968
2.13909 -3.96775 -0.876195
9.95559 -18.4741 1.83602
2.43476 -4.51995 -0.813146
9.86376 -18.319 2.55463
2.52418 -4.68987 -0.653951
9.84656 -18.3023 3.29169
3.15564 -5.86557 -0.582723
9.83131 -18.2817 4.03485
5.63891 -10.4901 -0.624159
9.82055 -18.2769 4.79011
8.23183 -15.3266 -0.303672
9.85339 -18.3534 5.58169
1.50067 -2.80344 -0.852032
8.2219 -15.366 0.304195
1.74717 -3.26667 -0.855264
9.88926 -18.4976 1.09926
2.12523 -3.97519 -0.876195
9.87977 -18.4876 1.83393
2.4199 -4.53016 -0.813459
9.7848 -18.3253 2.55073
2.49657 -4.67763 -0.651026
9.77517 -18.3227 3.28919
3.13515 -5.87655 -0.582723
9.75727 -18.2968 4.03065
5.56467 -10.4392 -0.619972
9.74203 -18.2836 4.78291
8.24503 -15.4806 -0.30615
9.76566 -18.3434 5.56823
1.49631 -2.8189 -0.855138
8.24319 -15.5359 0.306988
1.73119 -3.26414 -0.853014
9.81902 -18.5214 1.09864
2.11134 -3.98258 -0.876195
9.82078 -18.5326 1.83498
2.3976 -4.52636 -0.811269
9.70591 -18.3313 2.54683
2.47652 -4.6793 -0.650051
9.69638 -18.3287 3.28419
3.11555 -5.88922 -0.582898
9.68233 -18.3099 4.02607
5.5534 -10.5063 -0.622798
9.66358 -18.2899 4.77571
8.24697 -15.6153 -0.308244
9.68444 -18.3449 5.5584
1.48107 -2.81385 -0.852032
8.26899 -15.7168 0.30999
1.71616 -3.26326 -0.851215
9.74825 -18.5362 1.09759
2.09743 -3.98993 -0.876195
14.0506 -26.7398 2.64274
2.38729 -4.5452 -0.813146
9.62525 -18.3334 2.54244
2.46109 -4.68967 -0.650295
9.61627 -18.3241 3.27762
3.08664 -5.88418 -0.581329
9.60377 -18.3158 4.01996
5.54636 -10.5822 -0.626147
9.58792 -18.3011 4.76986
8.25639 -15.7595 -0.310548
9.60652 -18.3444 5.54856
1.46587 -2.80873 -0.848927
8.26678 -15.8398 0.311875
1.70623 -3.27066 -0.851665
9.68164 -18.5666 1.09738
2.05989 -3.95196 -0.866273
13.9747 -26.8223 2.64605
2.36582 -4.54083 -0.810956
9.55523 -18.3476 2.54
2.44461 -4.69605 -0.650051
9.53765 -18.3295 3.27261
3.05873 -5.88078 -0.579934
9.52758 -18.3179 4.01348
5.57665 -10.7264 -0.633579
9.5164 -18.312 4.76446
8.27139 -15.9231 -0.313201
9.53442 -18.3624 5.5439
1.45655 -2.81357 -0.848927
8.28221 -16.0053 0.314562
1.69033 -3.26795 -0.849415
9.6131 -18.5932 1.09696
2.07022 -4.00411 -0.876195
9.55807 -18.4947 1.82138
2.33817 -4.52624 -0.806889
9.47656 -18.3526 2.5361
2.4191 -4.68691 -0.647614
9.46365 -18.3433 3.26917
3.03921 -5.89089 -0.579934
9.45099 -18.3266 4.00813
5.58768 -10.8398 -0.639127
9.43635 -18.314 4.75637
8.29083 -16.0976 -0.316063
9.457 -18.3698 5.53614
1.44937 -2.8238 -0.850479
8.2911 -16.1605 0.31704
1.67891 -3.27383 -0.849415
9.52263 -18.5769 1.09403
2.03295 -3.96589 -0.866273
13.7518 -26.8388 2.63838
2.32326 -4.53613 -0.807202
9.39435 -18.3503 2.53123
2.40905 -4.7077 -0.64932
9.39057 -18.3587 3.26604
3.01863 -5.90146 -0.579934
9.37891 -18.3438 4.0047
5.65069 -11.0567 -0.650745
9.35198 -18.3069 4.74602
8.30007 -16.2547 -0.318576
9.33661 -18.2925 5.50301
1.44213 -2.834 -0.852032
8.30173 -16.3212 0.319623
1.66217 -3.26924 -0.846716
9.42839 -18.5442 1.09026
2.04222 -4.01847 -0.876195
9.35744 -18.4206 1.80761
2.30294 -4.53541 -0.805638
9.32125 -18.3652 2.52879
2.37823 -4.68776 -0.64542
9.31266 -18.3562 3.26009
2.99531 -5.90663 -0.579411
9.29885 -18.3449 3.99783
5.5886 -11.03 -0.648024
9.28538 -18.3342 4.74467
8.31479 -16.4177 -0.321229
9.26717 -18.3062 5.49783
1.42875 -2.83212 -0.849962
8.32321 -16.4986 0.322555
1.65659 -3.28518 -0.849415
9.25932 -18.3702 1.07812
2.02818 -4.02557 -0.876195
9.25992 -18.3873 1.80116
2.29766 -4.56243 -0.809079
9.25316 -18.3819 2.52684
2.36714 -4.70448 -0.646639
9.229 -18.3498 3.25321
2.97199 -5.91171 -0.578888
9.23003 -18.3598 3.9944
5.54302 -11.0307 -0.646977
9.20703 -18.33 4.73567
8.32741 -16.5861 -0.323952
9.19109 -18.3142 5.49059
1.4228 -2.84375 -0.852032
8.32103 -16.6385 0.324719
1.65034 -3.3014 -0.852115
9.18175 -18.3756 1.07655
2.01482 -4.03228 -0.876195
9.18999 -18.4001 1.79942
2.26583 -4.53861 -0.803447
9.17298 -18.3821 2.52245
2.34893 -4.70916 -0.646151
9.15519 -18.3625 3.24977
2.94881 -5.9144 -0.578191
9.14924 -18.3586 3.98715
5.54812 -11.1375 -0.652106
9.13083 -18.3377 4.72937
9.1578 -18.3999 -0.358752
9.10559 -18.303 5.47765
1.41287 -2.8487 -0.852032
9.12623 -18.4089 0.358647
1.63534 -3.30016 -0.850315
9.11135 -18.395 1.07582
2.00073 -4.03929 -0.876195
9.10449 -18.3892 1.79523
2.2491 -4.54472 -0.803135
9.09556 -18.3873 2.5188
2.34391 -4.74047 -0.64932
9.08054 -18.3731 3.24602
2.9202 -5.90858 -0.576622
9.06597 -18.3517 3.97875
5.52336 -11.1855 -0.653781
9.05642 -18.3484 4.72397
9.09264 -18.4299 -0.358717
9.02968 -18.3104 5.4704
1.3978 -2.84322 -0.848927
9.04956 -18.4155 0.358158
1.62209 -3.30235 -0.849415
9.03123 -18.3944 1.07393
1.96412 -4.00043 -0.866273
9.03323 -18.4066 1.79384
2.22452 -4.53481 -0.800006
9.01384 -18.3833 2.51392
2.31163 -4.71654 -0.644933
9.0094 -18.3905 3.24351
2.90219 -5.92411 -0.577145
8.9915 -18.362 3.97417
5.53608 -11.3105 -0.659956
8.97176 -18.3379 4.71317
9.01595 -18.4364 -0.358228
8.95723 -18.3244 5.46522
1.39295 -2.8585 -0.852032
8.97822 -18.4326 0.357879
1.6097 -3.30624 -0.848965
8.94862 -18.3881 1.07174
1.94155 -3.9896 -0.862457
8.96108 -18.4219 1.79227
2.20868 -4.54255 -0.800006
8.93747 -18.3896 2.51051
2.29689 -4.72815 -0.64542
8.92616 -18.3827 3.23663
2.88149 -5.9342 -0.577145
8.91878 -18.3757 3.97035
5.48785 -11.3118 -0.65891
8.89154 -18.3358 4.70463
8.9306 -18.4246 -0.35739
8.88478 -18.3382 5.46005
1.3796 -2.85638 -0.849962
8.90339 -18.4422 0.35746
1.59222 -3.29955 -0.845816
8.8757 -18.4012 1.07069
1.95832 -4.06002 -0.876195
8.88547 -18.4297 1.79
2.1911 -4.54667 -0.79938
8.86547 -18.4046 2.50832
2.28037 -4.73614 -0.64542
8.85252 -18.3942 3.23319
2.85212 -5.92627 -0.575402
8.84777 -18.3925 3.9673
5.45093 -11.3363 -0.659224
8.82073 -18.3527 4.70103
8.85411 -18.4304 -0.356902
8.85835 -18.4475 5.48334
1.36462 -2.85073 -0.846856
8.8217 -18.4371 0.356762
1.58742 -3.31915 -0.849415
8.79935 -18.4069 1.06922
1.94414 -4.06683 -0.876195
8.81077 -18.439 1.78791
2.1701 -4.54359 -0.797503
8.79091 -18.414 2.50539
2.26126 -4.73869 -0.644689
8.7772 -18.4018 3.22912
2.82198 -5.91641 -0.573485
8.76915 -18.3932 3.96081
5.41304 -11.3589 -0.659433
8.74823 -18.3658 4.69653
8.77941 -18.4395 -0.356483
8.81051 -18.5132 5.49369
1.35466 -2.85547 -0.846856
8.74444 -18.4407 0.356239
1.56665 -3.3053 -0.844466
8.8026 -18.5801 1.07749
1.92993 -4.07359 -0.876195
8.81116 -18.6065 1.80116
2.15001 -4.54221 -0.795939
8.71299 -18.4158 2.50149
2.23876 -4.73399 -0.642983
8.69856 -18.402 3.2238
2.80131 -5.92623 -0.573485
8.69567 -18.4041 3.95662
5.3853 -11.403 -0.660899
8.67325 -18.3733 4.69068
8.70134 -18.4411 -0.355924
8.71122 -18.4704 5.47195
1.34633 -2.86368 -0.847891
8.66726 -18.4439 0.355715
1.5493 -3.2984 -0.841317
8.736 -18.6071 1.07728
1.9157 -4.0803 -0.876195
8.75124 -18.648 1.80221
2.12743 -4.53538 -0.793436
8.63517 -18.4174 2.49759
2.22812 -4.75436 -0.644689
8.62506 -18.4125 3.22036
2.78399 -5.94319 -0.574182
8.61389 -18.397 3.9486
5.31752 -11.362 -0.657444
8.59751 -18.3787 4.68438
8.63522 -18.4678 -0.355855
8.63033 -18.4657 5.4616
1.34285 -2.88237 -0.852032
8.59607 -18.4596 0.355436
1.54353 -3.31616 -0.844466
8.64222 -18.5671 1.07331
1.87163 -4.02288 -0.862457
2.11824 -4.55711 -0.795939
8.55912 -18.4222 2.49418
2.19477 -4.72392 -0.63957
8.55231 -18.4159 3.21598
2.75736 -5.94022 -0.572962
8.54549 -18.4181 3.94669
5.31649 -11.4639 -0.662259
8.52258 -18.3771 4.67673
8.56047 -18.4673 -0.355296
8.56824 -18.4925 5.46108
1.33085 -2.88155 -0.850479
8.52391 -18.4644 0.354982
1.53416 -3.3248 -0.845366
8.56052 -18.5522 1.07079
1.8665 -4.04689 -0.866273
9.01782 -19.5612 1.88448
2.10229 -4.56232 -0.795626
8.48885 -18.4307 2.4915
2.18906 -4.75281 -0.642495
8.4788 -18.4173 3.21129
2.72848 -5.92942 -0.571044
8.47288 -18.4214 3.94135
5.3018 -11.5322 -0.66519
8.45426 -18.3893 4.67268
8.49 -18.4756 -0.354912
8.50042 -18.5068 5.45694
1.31003 -2.86135 -0.843232
8.45348 -18.4725 0.354598
1.52069 -3.32455 -0.844016
8.47411 -18.5347 1.06807
1.87429 -4.09948 -0.876195
9.02412 -19.7468 1.89947
2.0732 -4.53872 -0.790307
8.41944 -18.4406 2.48906
2.16422 -4.74236 -0.640058
8.40544 -18.427 3.20785
2.70302 -5.92574 -0.569824
8.3979 -18.419 3.93486
5.28506 -11.597 -0.667912
8.38032 -18.3974 4.66728
8.4122 -18.476 -0.354354
8.42216 -18.5064 5.44814
1.31041 -2.88878 -0.849962
8.37409 -18.4691 0.35397
1.51552 -3.34404 -0.847616
8.37805 -18.495 1.06409
1.83081 -4.04162 -0.862457
9.05211 -19.9923 1.92004
2.05327 -4.53693 -0.788743
8.34193 -18.441 2.48516
2.14929 -4.7535 -0.640545
8.33212 -18.4364 3.2044
2.67821 -5.92607 -0.568953
8.32143 -18.4214 3.92914
5.21907 -11.559 -0.664667
8.30724 -18.4071 4.66234
8.33615 -18.4797 -0.353865
8.35116 -18.5216 5.444
1.29873 -2.88981 -0.848927
8.30219 -18.4818 0.353656
1.49425 -3.32797 -0.842217
8.29544 -18.4841 1.06179
1.81669 -4.04799 -0.862457
9.07033 -20.2201 1.93887
2.03338 -4.53506 -0.787178
8.26451 -18.441 2.48126
2.12944 -4.75373 -0.63957
8.25641 -18.4402 3.20002
2.65018 -5.91901 -0.567384
8.24825 -18.4306 3.92494
5.2056 -11.6373 -0.668121
8.22782 -18.4021 4.65379
8.2569 -18.4758 -0.353237
8.28015 -18.5365 5.43986
1.28707 -2.8908 -0.847891
8.22787 -18.4888 0.353237
1.48263 -3.33317 -0.842217
8.21059 -18.4673 1.05918
1.80255 -4.0543 -0.862457
9.0887 -20.452 1.95804
2.01593 -4.53852 -0.786553
8.19285 -18.4534 2.47907
2.10317 -4.73936 -0.636646
8.18158 -18.4454 3.19596
2.63031 -5.93005 -0.567558
8.1783 -18.4467 3.92227
5.22159 -11.7832 -0.675448
8.15406 -18.4094 4.64839
8.17779 -18.4716 -0.352608
8.18882 -18.5053 5.42226
1.27697 -2.89527 -0.847891
8.1528 -18.4936 0.352783
1.47256 -3.34189 -0.843117
8.12998 -18.4593 1.05708
1.77731 -4.03542 -0.857114
9.10074 -20.6732 1.97617
2.00008 -4.54553 -0.786553
8.12199 -18.4674 2.47712
2.0954 -4.76666 -0.639327
8.10522 -18.4467 3.19126
2.60238 -5.92278 -0.565989
8.10833 -18.4625 3.9196
5.1997 -11.8452 -0.67796
8.08192 -18.4199 4.64389
8.10201 -18.4744 -0.35212
8.11331 -18.509 5.41501
1.26685 -2.89971 -0.847891
8.07619 -18.4945 0.352259
1.4562 -3.33629 -0.840417
8.0559 -18.4656 1.05583
1.77106 -4.05959 -0.86093
9.11931 -20.913 1.99604
1.98341 -4.55067 -0.78624
8.04796 -18.4738 2.47419
2.07954 -4.77577 -0.63957
8.02975 -18.4495 3.18688
2.5801 -5.92817 -0.565641
8.03209 -18.4637 3.91387
5.19336 -11.9439 -0.682566
8.00825 -18.4265 4.63849
8.03509 -18.4971 -0.352015
8.0325 -18.5 5.40414
1.25672 -2.90412 -0.847891
8.00126 -18.4987 0.351806
1.45074 -3.35567 -0.844016
7.98031 -18.4679 1.05436
1.74909 -4.04773 -0.857114
9.14579 -21.1752 2.018
1.96047 -4.54124 -0.783424
7.97163 -18.4744 2.47054
2.05735 -4.77024 -0.637864
7.95826 -18.4611 3.18407
2.56176 -5.94263 -0.566164
7.94972 -18.4502 3.9051
5.12478 -11.8996 -0.679007
7.9408 -18.4472 4.63669
7.96415 -18.5103 -0.351736
7.91903 -18.4143 5.37101
1.24734 -2.91026 -0.848409
7.92798 -18.5063 0.351422
1.43211 -3.34459 -0.839967
7.90401 -18.4681 1.05279
1.75349 -4.09713 -0.866273
7.9544 -18.5948 1.76944
1.95159 -4.5644 -0.78624
7.89383 -18.4711 2.46639
2.02431 -4.73906 -0.632746
7.88601 -18.4706 3.18094
2.53787 -5.94421 -0.565466
7.87603 -18.4562 3.90052
5.08869 -11.9303 -0.679739
7.86032 -18.4372 4.62724
7.89478 -18.527 -0.351526
7.8441 -18.417 5.36377
1.23944 -2.91993 -0.849962
7.86177 -18.5302 0.351352
1.41738 -3.34239 -0.838168
7.83804 -18.4832 1.05216
1.73152 -4.08515 -0.862457
7.84125 -18.5087 1.75863
1.93488 -4.56937 -0.785927
7.82234 -18.4821 2.4642
1.99848 -4.72415 -0.629821
7.81317 -18.4694 3.17625
2.51788 -5.95486 -0.565641
7.80697 -18.4727 3.89823
5.06878 -11.9995 -0.68267
7.7853 -18.4394 4.62094
7.82319 -18.5291 -0.351073
7.77998 -18.4357 5.3617
1.22924 -2.92424 -0.849962
7.79253 -18.5377 0.351003
1.40856 -3.35246 -0.839517
7.76651 -18.4939 1.05122
1.68837 -4.02238 -0.847955
7.76812 -18.5158 1.75671
1.92201 -4.58123 -0.786865
7.7518 -18.4859 2.46127
1.9805 -4.72526 -0.62909
7.74255 -18.482 3.17374
2.49093 -5.94892 -0.564246
7.73733 -18.4785 3.89403
5.04978 -12.066 -0.685496
7.71659 -18.4471 4.61645
7.74767 -18.5305 -0.350584
7.70143 -18.4289 5.35186
1.21508 -2.9176 -0.846856
7.71471 -18.5334 0.350409
1.40059 -3.36635 -0.841767
7.69808 -18.5117 1.0507
1.73081 -4.1621 -0.876195
7.69903 -18.5231 1.75497
1.89539 -4.56237 -0.782485
7.68266 -18.5019 2.45981
1.96475 -4.73398 -0.629333
7.6689 -18.487 3.16999
2.47042 -5.9553 -0.564072
7.66676 -18.4909 3.89098
5.06192 -12.2145 -0.692928
7.64245 -18.4505 4.6106
7.67376 -18.5352 -0.350165
7.62671 -18.4307 5.34461
1.20636 -2.9254 -0.847891
7.63777 -18.5306 0.349851
1.3866 -3.36582 -0.840417
7.62277 -18.5126 1.04923
1.6789 -4.07734 -0.857114
7.62219 -18.5203 1.75218
1.87645 -4.56165 -0.781234
7.60595 -18.4992 2.45591
1.9452 -4.73347 -0.628358
7.59532 -18.4917 3.16623
2.4481 -5.9602 -0.563723
7.58875 -18.4849 3.88411
5.05489 -12.319 -0.697848
7.57357 -18.4663 4.6079
7.59687 -18.5323 -0.349607
7.55794 -18.4465 5.34151
1.19906 -2.93675 -0.849962
7.56096 -18.5276 0.349292
1.37485 -3.37064 -0.840417
7.55228 -18.5155 1.04798
7.54998 -18.5284 1.75044
1.86275 -4.57366 -0.782172
7.5331 -18.5054 2.45323
1.92193 -4.72368 -0.626165
7.52949 -18.5058 3.16436
2.42428 -5.96133 -0.563026
7.51457 -18.4876 3.87915
4.99907 -12.3051 -0.696068
7.49733 -18.4637 4.6007
7.53613 -18.5592 -0.349642
7.49091 -18.4571 5.33737
1.18953 -2.9427 -0.850479
7.49273 -18.5358 0.348978
1.3622 -3.37156 -0.839517
7.48087 -18.5251 1.04703
1.66068 -4.11445 -0.862457
7.48004 -18.5417 1.74922
1.83871 -4.55783 -0.778418
7.46352 -18.5101 2.45055
1.90403 -4.7245 -0.625434
7.45378 -18.5045 3.15966
2.4042 -5.97161 -0.5632
7.44955 -18.5033 3.87724
4.93289 -12.2586 -0.692509
7.42879 -18.4704 4.5962
7.45862 -18.5539 -0.349048
7.46029 -18.5674 5.3617
1.17689 -2.93946 -0.848409
7.42724 -18.56 0.348943
1.35477 -3.38716 -0.842217
7.40605 -18.5165 1.04515
1.63682 -4.09442 -0.857114
7.41112 -18.5479 1.74747
1.82645 -4.57339 -0.779982
7.39298 -18.5213 2.4486
1.88679 -4.72928 -0.62519
7.38139 -18.5016 3.15497
2.37922 -5.96659 -0.56198
7.38056 -18.5183 3.87495
4.93368 -12.3852 -0.698685
7.3585 -18.4817 4.5926
7.38374 -18.5451 -0.34842
7.44511 -18.7087 5.39534
1.16306 -2.93457 -0.845821
7.35534 -18.5585 0.348455
1.34496 -3.39525 -0.843117
7.33329 -18.5218 1.044
1.61241 -4.07455 -0.851771
7.38883 -18.6811 1.75758
1.81709 -4.59412 -0.782485
7.32276 -18.5235 2.44567
1.86891 -4.72997 -0.624459
7.31024 -18.5107 3.15215
2.36204 -5.98413 -0.562852
7.30758 -18.5134 3.86884
4.9241 -12.4814 -0.703186
7.29074 -18.4897 4.58855
7.31383 -18.5577 -0.348175
7.31886 -18.58 5.35083
1.15333 -2.93841 -0.845821
7.28101 -18.5599 0.348001
1.32457 -3.37816 -0.837718
7.26276 -18.5324 1.04316
1.6082 -4.10574 -0.857114
7.34573 -18.7537 1.76211
1.79384 -4.58204 -0.779357
7.25082 -18.5305 2.44324
1.85239 -4.73646 -0.624459
7.24054 -18.5233 3.14996
2.33533 -5.97749 -0.561457
7.22824 -18.5108 3.86274
4.90664 -12.5719 -0.707268
7.2219 -18.5041 4.58585
7.23883 -18.5571 -0.347687
7.23712 -18.5623 5.3384
1.14674 -2.95342 -0.848927
7.20426 -18.5641 0.347582
1.31358 -3.38662 -0.838618
7.18468 -18.5328 1.04169
1.58463 -4.08964 -0.852535
9.05785 -23.3767 2.19336
1.77275 -4.57753 -0.777479
7.17139 -18.5273 2.43934
1.83072 -4.73211 -0.622996
7.1669 -18.5349 3.14746
2.31341 -5.98601 -0.561457
7.15328 -18.5189 3.85892
4.85909 -12.5861 -0.707059
7.14351 -18.5032 4.5791
7.16572 -18.5704 -0.347443
7.15792 -18.5598 5.33012
1.13453 -2.954 -0.847891
7.13044 -18.5754 0.347303
1.30186 -3.39323 -0.839067
7.11279 -18.5391 1.04065
1.56191 -4.07315 -0.847955
8.96855 -23.4005 2.19249
1.75808 -4.58953 -0.778418
7.09705 -18.5368 2.43714
1.80851 -4.72364 -0.621046
7.09581 -18.5432 3.14465
2.29748 -6.00707 -0.562677
7.08719 -18.5401 3.85816
4.81727 -12.6086 -0.707373
7.06705 -18.4971 4.57146
7.09872 -18.5897 -0.347338
7.09584 -18.5919 5.33219
1.1206 -2.94691 -0.844785
7.06383 -18.5859 0.347059
1.29129 -3.39935 -0.839517
7.04631 -18.5495 1.03992
1.55536 -4.09666 -0.851771
8.87323 -23.3835 2.18813
1.74005 -4.58795 -0.777167
7.03273 -18.5528 2.43617
1.79424 -4.73333 -0.621534
7.02168 -18.5334 3.13901
2.27614 -6.01093 -0.562329
7.02011 -18.5488 3.85511
4.7938 -12.673 -0.710094
7.00085 -18.5077 4.56831
7.02077 -18.5701 -0.346535
7.04508 -18.6443 5.34047
1.10742 -2.94157 -0.842197
6.99089 -18.5793 0.3465
1.28413 -3.41456 -0.842217
6.97589 -18.5591 1.03908
1.55143 -4.12753 -0.857114
8.78163 -23.3755 2.18465
1.71927 -4.5789 -0.774664
6.96279 -18.5537 2.43324
1.77562 -4.73399 -0.620803
6.95001 -18.5393 3.13589
2.2499 -6.00166 -0.56076
6.94892 -18.5462 3.84976
4.79027 -12.7917 -0.715851
6.93279 -18.5229 4.56606
6.9531 -18.587 -0.346395
9.17332 -24.5352 7.01866
1.09782 -2.94723 -0.842715
6.91692 -18.5792 0.346046
1.27016 -3.41354 -0.840867
6.9055 -18.5683 1.03824
1.5466 -4.15868 -0.862457
8.69858 -23.4023 2.1843
1.69571 -4.5645 -0.771222
6.89108 -18.5593 2.43081
1.76323 -4.75132 -0.622265
6.88113 -18.5523 3.13401
2.22963 -6.01134 -0.560934
6.87595 -18.5483 3.84518
4.85939 -13.1155 -0.733017
6.86064 -18.5268 4.56111
6.88263 -18.5962 -0.346116
9.0769 -24.538 7.01037
1.08953 -2.95648 -0.844268
6.84926 -18.5957 0.345907
1.26026 -3.42344 -0.842217
6.83443 -18.5754 1.0373
1.50631 -4.09404 -0.847955
8.60791 -23.4082 2.18203
1.68045 -4.57225 -0.771535
6.82009 -18.5665 2.42861
1.74458 -4.75186 -0.621534
6.8102 -18.5596 3.13119
2.21206 -6.02844 -0.561806
6.8044 -18.5537 3.84137
4.81495 -13.1362 -0.733227
6.78923 -18.5324 4.55661
6.81286 -18.6069 -0.345872
8.97526 -24.526 6.99795
1.08185 -2.96753 -0.846338
6.77746 -18.6007 0.345558
1.24964 -3.43148 -0.843117
6.75999 -18.5729 1.03583
1.50813 -4.14355 -0.857114
8.52069 -23.4231 2.18064
1.66718 -4.58551 -0.772786
6.75389 -18.5864 2.42813
1.72662 -4.75419 -0.621046
6.73931 -18.5665 3.12838
2.19509 -6.04736 -0.562852
6.73223 -18.5571 3.83717
4.78269 -13.1904 -0.73532
6.7152 -18.5303 4.55031
6.74038 -18.6099 -0.345488
8.90274 -24.5936 7.0083
1.06886 -2.96402 -0.844268
6.70842 -18.613 0.345348
1.23633 -3.43216 -0.842217
6.69362 -18.5821 1.0351
1.48434 -4.12292 -0.851771
8.43078 -23.4302 2.17854
1.6525 -4.59502 -0.773412
6.68494 -18.5987 2.42666
1.70465 -4.74524 -0.619096
6.66635 -18.5571 3.12306
2.16992 -6.04373 -0.561806
6.66343 -18.5694 3.83488
4.73999 -13.2165 -0.735844
6.64456 -18.5371 4.54626
6.67323 -18.6171 -0.345209
8.79638 -24.5538 6.98863
1.05851 -2.96773 -0.844268
6.64062 -18.6182 0.345034
1.22625 -3.43991 -0.843117
6.62805 -18.6034 1.035
1.47916 -4.15397 -0.857114
8.33759 -23.4276 2.17558
1.63195 -4.58559 -0.770909
6.62256 -18.6189 2.42642
1.69688 -4.77331 -0.622021
6.59691 -18.5673 3.12087
2.14481 -6.04001 -0.56076
6.59656 -18.5766 3.83183
4.76494 -13.426 -0.746625
6.57914 -18.5481 4.54356
6.60085 -18.6196 -0.344825
6.61635 -18.6736 5.30838
1.04609 -2.96393 -0.842197
6.56627 -18.6148 0.344545
1.21294 -3.44049 -0.842217
6.55835 -18.6027 1.03374
1.46538 -4.15886 -0.857114
8.25721 -23.4476 2.17488
1.61003 -4.57449 -0.768093
6.54962 -18.6194 2.42349
1.67692 -4.76984 -0.620803
6.53333 -18.5835 3.11993
2.12543 -6.04897 -0.560934
6.52127 -18.5699 3.82572
4.72863 -13.4727 -0.7483
6.50791 -18.5525 4.53906
5.46015 -15.5656 -0.28793
6.49879 -18.5369 5.26334
1.03638 -2.96939 -0.842715
6.49858 -18.6195 0.344231
1.19639 -3.42978 -0.838618
6.48877 -18.6123 1.03301
1.45731 -4.18249 -0.86093
1.59421 -4.57793 -0.76778
6.46762 -18.5829 2.41594
1.66501 -4.78663 -0.622265
6.46388 -18.5931 3.11774
2.10038 -6.04506 -0.559888
6.45643 -18.5821 3.82381
4.65051 -13.3921 -0.742961
6.44124 -18.5593 4.53546
5.39726 -15.56 -0.287476
6.42772 -18.5412 5.25817
1.02801 -2.98048 -0.844785
6.42443 -18.6368 0.344092
1.18385 -3.43619 -0.839067
6.40555 -18.6031 1.03112
1.42791 -4.14696 -0.852535
6.41198 -18.6323 1.72394
1.5779 -4.58776 -0.768406
6.39363 -18.6001 2.41496
1.64403 -4.78547 -0.62129
6.38603 -18.5991 3.11461
2.07756 -6.05083 -0.559714
6.3793 -18.59 3.82038
4.62886 -13.4967 -0.747776
6.36108 -18.5581 4.52916
5.3284 -15.5541 -0.286987
6.35147 -18.5511 5.25403
1.01822 -2.98587 -0.845303
6.35482 -18.6458 0.343847
1.17059 -3.43661 -0.838168
6.33607 -18.6121 1.03039
1.42988 -4.20024 -0.862457
6.34049 -18.6357 1.7222
1.56251 -4.59511 -0.768719
6.32356 -18.6073 2.41301
1.63307 -4.8081 -0.623484
6.30964 -18.5876 3.10898
2.05195 -6.04484 -0.558494
6.30995 -18.5992 3.81771
4.47974 -13.212 -0.731133
6.29126 -18.5654 4.52557
5.27023 -15.5613 -0.286778
6.28296 -18.5622 5.25092
1.00532 -2.98209 -0.843232
6.28267 -18.6471 0.343463
1.15734 -3.43698 -0.837268
6.27113 -18.6235 1.02987
1.37513 -4.08612 -0.838033
6.26778 -18.6351 1.72011
1.54143 -4.58556 -0.766216
6.25667 -18.6236 2.41228
1.60995 -4.79495 -0.621046
6.24545 -18.6009 3.10773
2.03083 -6.05196 -0.558494
6.2375 -18.5988 3.81313
4.48501 -13.381 -0.739612
6.22332 -18.578 4.52332
5.21352 -15.5635 -0.286499
6.20849 -18.5445 5.24005
0.996128 -2.98924 -0.844268
6.21005 -18.6355 0.34287
1.15332 -3.46299 -0.842667
6.20419 -18.6396 1.02955
1.38441 -4.16169 -0.852535
6.19955 -18.6474 1.71923
1.52933 -4.60001 -0.76778
6.18549 -18.616 2.40863
1.60218 -4.82476 -0.624215
6.17551 -18.6076 3.10522
2.01346 -6.07036 -0.55954
6.17146 -18.6063 3.81046
4.02835 -12.1521 -0.670947
6.15739 -18.5856 4.52017
5.1579 -15.5778 -0.286429
6.14008 -18.555 5.23694
0.989838 -3.00354 -0.847374
1.13453 -3.44663 -0.837718
6.1316 -18.6384 1.0283
1.36937 -4.16252 -0.851771
6.12896 -18.6413 1.71679
1.50586 -4.5828 -0.764026
6.1149 -18.6205 2.40643
1.59647 -4.86427 -0.628602
6.10559 -18.614 3.10272
1.9927 -6.07511 -0.559366
6.10036 -18.6091 3.80664
4.48897 -13.7016 -0.755627
6.08581 -18.5866 4.51522
5.101 -15.5881 -0.286289
6.07527 -18.5763 5.23694
0.979348 -3.00698 -0.847374
5.14831 -15.8167 0.290338
1.1255 -3.45983 -0.839967
6.05662 -18.6293 1.02662
1.35484 -4.16728 -0.851771
6.06139 -18.655 1.7161
1.49474 -4.60306 -0.766529
6.04374 -18.6228 2.404
1.58193 -4.87737 -0.629577
6.0357 -18.6202 3.10022
1.97394 -6.08961 -0.560063
6.02871 -18.6097 3.80244
3.95203 -12.2066 -0.672412
6.01549 -18.591 4.51117
5.04287 -15.5944 -0.28608
6.04307 -18.6985 5.26542
0.965294 -2.99934 -0.844268
5.1494 -16.0097 0.293549
1.11044 -3.45447 -0.837718
5.98728 -18.637 1.02589
1.33428 -4.15329 -0.847955
5.98832 -18.6514 1.71383
1.47625 -4.60073 -0.765278
5.98596 -18.6665 2.40692
1.56792 -4.89231 -0.630796
5.96404 -18.6205 3.09678
1.94902 -6.08508 -0.559017
5.95713 -18.6101 3.79824
4.39685 -13.744 -0.756255
5.94462 -18.5933 4.50667
4.9811 -15.5891 -0.285661
6.00479 -18.8042 5.28923
0.952477 -2.99533 -0.842197
5.03595 -15.8465 0.290234
1.10014 -3.46389 -0.839067
5.91977 -18.6502 1.02547
1.33402 -4.20283 -0.857114
5.96896 -18.8166 1.72708
1.46018 -4.60585 -0.765278
5.96694 -18.833 2.42569
1.55084 -4.89775 -0.630796
5.89663 -18.6336 3.09553
1.92236 -6.07475 -0.557448
5.89509 -18.6401 3.80015
4.34163 -13.7364 -0.754999
5.87734 -18.6066 4.50487
4.92424 -15.5987 -0.285521
0.943753 -3.00417 -0.84375
4.96982 -15.8297 0.289605
1.08338 -3.45284 -0.835468
5.85045 -18.6574 1.02474
1.31112 -4.18124 -0.851771
5.90324 -18.8373 1.72708
1.44173 -4.60338 -0.764026
5.90294 -18.8594 2.42642
1.54203 -4.92966 -0.634208
5.82742 -18.6409 3.09334
1.89639 -6.06621 -0.556054
5.8136 -18.6081 3.78947
4.28413 -13.721 -0.753324
5.80945 -18.6177 4.50262
4.86619 -15.6044 -0.285312
0.93326 -3.00744 -0.84375
4.96251 -16.0016 0.292433
1.06843 -3.44729 -0.833219
5.78411 -18.6739 1.02453
1.30465 -4.21204 -0.857114
5.82449 -18.8159 1.72324
1.42215 -4.59706 -0.762149
5.82886 -18.8533 2.42301
1.52657 -4.9407 -0.634939
5.75882 -18.6498 3.09146
1.87402 -6.06899 -0.555705
5.75324 -18.6433 3.79252
4.2521 -13.7874 -0.75615
5.73869 -18.6192 4.49812
4.81052 -15.6174 -0.285242
0.923323 -3.01253 -0.844268
4.94938 -16.1584 0.294981
1.06324 -3.47336 -0.838618
5.71338 -18.6643 1.02296
1.28994 -4.21657 -0.857114
5.75586 -18.8266 1.72237
1.40263 -4.59067 -0.760272
5.75954 -18.8622 2.42154
1.49946 -4.91372 -0.630796
5.69175 -18.6518 3.08864
1.84818 -6.06025 -0.554311
5.6784 -18.6313 3.78603
4.21849 -13.8499 -0.758767
5.66969 -18.6261 4.49497
4.75288 -15.6142 -0.284893
0.908325 -3.00094 -0.840127
4.8529 -16.0331 0.292398
1.04833 -3.46568 -0.835918
5.64762 -18.6822 1.02285
1.24683 -4.12708 -0.838033
5.68666 -18.8351 1.72133
1.38968 -4.60286 -0.761523
5.69524 -18.8754 2.42081
1.49176 -4.94718 -0.634452
5.62034 -18.6508 3.0852
1.82184 -6.04949 -0.552742
5.61941 -18.6595 3.78794
4.17369 -13.8677 -0.758976
5.60396 -18.6317 4.49182
4.69489 -15.6192 -0.284684
0.898368 -3.00394 -0.840127
4.80663 -16.0825 0.292991
1.03846 -3.47678 -0.837718
5.57894 -18.6904 1.02223
1.25447 -4.20268 -0.852535
5.6179 -18.8329 1.71941
1.37022 -4.59632 -0.759646
5.62592 -18.8838 2.41935
1.43709 -4.82679 -0.618365
5.5507 -18.6551 3.0827
1.79666 -6.03831 -0.551173
5.54865 -18.6601 3.78412
4.25213 -14.3091 -0.782318
5.53501 -18.6381 4.48867
4.6392 -15.6316 -0.284614
0.888971 -3.01076 -0.841162
4.69331 -15.9055 0.289466
1.02356 -3.47104 -0.835468
5.50746 -18.6886 1.02107
1.24645 -4.22963 -0.857114
5.54819 -18.839 1.71819
1.35417 -4.60108 -0.759646
5.55548 -18.8881 2.4174
1.41408 -4.81082 -0.615684
5.48165 -18.6611 3.08051
1.77725 -6.05028 -0.551696
5.47574 -18.653 3.77878
4.20778 -14.343 -0.783365
5.46717 -18.6479 4.48642
4.5818 -15.6381 -0.284439
0.875753 -3.00457 -0.838574
4.68194 -16.0734 0.292223
1.0098 -3.46898 -0.834118
5.43717 -18.6905 1.02013
1.22071 -4.19625 -0.849482
5.48184 -18.8563 1.71801
1.3392 -4.60957 -0.760272
5.48343 -18.8864 2.41472
1.3934 -4.80239 -0.613978
5.41537 -18.6763 3.07988
1.75446 -6.05071 -0.551173
5.40896 -18.6664 3.77764
4.05213 -13.9931 -0.763477
5.39338 -18.6369 4.47923
4.52718 -15.654 -0.284439
0.865794 -3.00947 -0.839091
4.64901 -16.1704 0.293689
0.999301 -3.4781 -0.835468
5.36638 -18.6902 1.01909
1.20389 -4.19294 -0.847955
5.41983 -18.8887 1.71923
1.32202 -4.61042 -0.759646
5.41364 -18.8921 2.41301
1.37499 -4.80149 -0.613247
5.34363 -18.6723 3.07613
1.73388 -6.05871 -0.551347
5.34214 -18.6795 3.77649
4.13828 -14.4796 -0.789226
5.32454 -18.6425 4.47608
4.46702 -15.6505 -0.28409
0.858977 -3.02548 -0.842715
4.51448 -15.9114 0.288698
0.98928 -3.48907 -0.837268
5.30002 -18.7049 1.01888
1.1946 -4.21601 -0.851771
5.35712 -18.9191 1.72028
1.30699 -4.61881 -0.760272
5.3428 -18.8937 2.41082
1.35984 -4.812 -0.613978
5.27358 -18.6738 3.07331
1.70622 -6.04172 -0.549255
5.27424 -18.6886 3.77458
4.09855 -14.5324 -0.79132
5.25679 -18.6516 4.47383
4.40966 -15.6564 -0.283916
0.843199 -3.00986 -0.837538
4.44759 -15.8867 0.287965
0.97657 -3.49062 -0.836818
5.22932 -18.7041 1.01783
1.17459 -4.20124 -0.847955
5.27282 -18.8724 1.71435
1.28448 -4.60051 -0.756517
5.27735 -18.9141 2.41106
1.33877 -4.80142 -0.612028
5.20413 -18.6768 3.07081
1.67603 -6.01501 -0.546292
5.20582 -18.6955 3.77229
4.06815 -14.6197 -0.795297
5.18748 -18.6549 4.47023
4.34588 -15.6389 -0.283322
5.23169 -18.8393 5.23902
0.83629 -3.02582 -0.841162
4.43843 -16.0698 0.291001
0.956602 -3.46583 -0.830069
5.1662 -18.7175 1.01762
1.17245 -4.25074 -0.857114
6.49659 -23.5697 2.13898
1.27052 -4.61258 -0.757769
5.20498 -18.9094 2.40814
1.32442 -4.81157 -0.612759
5.14007 -18.6864 3.06956
1.6566 -6.02659 -0.546815
5.12856 -18.67 3.76352
4.02344 -14.6569 -0.796553
5.1261 -18.6738 4.47068
4.29293 -15.6494 -0.283253
5.1125 -18.6498 5.18156
0.825743 -3.02671 -0.840644
4.35356 -15.9687 0.288907
0.951251 -3.49155 -0.835468
5.09938 -18.7172 1.01668
1.15112 -4.22808 -0.851771
1.2547 -4.61486 -0.757456
5.09592 -18.7561 2.38645
1.3069 -4.81019 -0.612028
5.076 -18.6957 3.06831
1.63348 -6.02051 -0.545769
5.06354 -18.6756 3.76123
3.98212 -14.6972 -0.798019
5.05753 -18.6663 4.46483
4.2384 -15.6539 -0.283078
5.04659 -18.6517 5.17742
0.816204 -3.0313 -0.841162
4.31149 -16.0236 0.28964
0.938655 -3.49092 -0.834568
5.02572 -18.704 1.015
1.11876 -4.16362 -0.838033
5.03191 -18.7401 1.69762
1.23836 -4.61518 -0.75683
5.01776 -18.7135 2.37889
1.28342 -4.78979 -0.608859
5.00764 -18.7018 3.06643
1.61763 -6.04129 -0.547164
4.99955 -18.6847 3.7597
3.94987 -14.7721 -0.801368
4.98881 -18.6706 4.46168
4.17858 -15.6493 -0.282729
4.98394 -18.6785 5.18
0.803635 -3.02666 -0.839091
4.3822 -16.5159 0.298262
0.927462 -3.49794 -0.835468
4.96091 -18.7233 1.01511
4.95779 -18.7248 1.69466
1.22325 -4.6233 -0.757456
4.94885 -18.7174 2.37718
1.26822 -4.8 -0.609591
4.9378 -18.702 3.06361
1.59704 -6.04883 -0.547338
4.93881 -18.7191 3.76313
3.90032 -14.7935 -0.801787
4.91964 -18.6729 4.45808
4.12291 -15.6599 -0.282659
4.91085 -18.6659 5.17172
0.791108 -3.02197 -0.837021
4.35236 -16.6375 0.300181
0.91574 -3.50304 -0.835918
4.89451 -18.7367 1.0149
1.11447 -4.26631 -0.857114
4.88988 -18.7323 1.69378
1.20561 -4.6218 -0.756517
4.88248 -18.7307 2.3767
1.24995 -4.79864 -0.608859
4.87049 -18.7115 3.06236
1.56839 -6.02544 -0.544723
4.86404 -18.7001 3.75588
3.86474 -14.8689 -0.805136
4.85296 -18.6843 4.45673
4.0652 -15.6626 -0.28245
4.83936 -18.6587 5.16499
0.78152 -3.02845 -0.838056
4.83603 -18.7535 0.338053
0.900589 -3.4949 -0.833219
4.8251 -18.7382 1.01406
1.10643 -4.29679 -0.862457
4.82049 -18.7339 1.69239
1.18849 -4.62216 -0.755891
4.81213 -18.7284 2.37426
1.23122 -4.79528 -0.607884
4.80269 -18.7188 3.0608
1.54437 -6.0193 -0.543678
4.79289 -18.6942 3.75131
3.81777 -14.9016 -0.806183
4.78723 -18.6992 4.45628
4.04074 -15.7948 -0.284579
4.7742 -18.6754 5.16499
0.770944 -3.03116 -0.838056
4.76808 -18.7606 0.337879
0.885985 -3.48858 -0.830969
4.75998 -18.7425 1.01343
1.09142 -4.30062 -0.862457
4.75507 -18.7506 1.69239
1.17235 -4.62628 -0.755891
4.74332 -18.7317 2.37255
1.21545 -4.8034 -0.608372
4.74011 -18.7327 3.06048
1.52482 -6.03045 -0.5442
4.72664 -18.707 3.75054
3.78235 -14.9807 -0.809742
4.71716 -18.6969 4.45178
4.08471 -16.1901 -0.291455
4.7113 -18.6874 5.16396
0.759889 -3.03196 -0.837538
4.70487 -18.7725 0.337809
0.876779 -3.50095 -0.833219
4.69162 -18.7473 1.01281
1.06307 -4.25108 -0.851771
4.68766 -18.7593 1.69169
1.15748 -4.63206 -0.756204
4.67781 -18.7338 2.37085
1.19471 -4.78814 -0.605934
4.66943 -18.7281 3.05704
1.50713 -6.04927 -0.545421
4.66269 -18.7149 3.74902
3.7452 -15.0435 -0.812463
4.65184 -18.6992 4.44863
4.10246 -16.5031 -0.296831
4.64557 -18.7019 5.16344
0.750294 -3.03634 -0.838056
4.63787 -18.7829 0.337704
0.86362 -3.5002 -0.832319
4.62185 -18.7462 1.01186
1.05554 -4.28127 -0.857114
4.62257 -18.7632 1.69065
1.14461 -4.6495 -0.758394
4.61144 -18.7462 2.37036
1.17941 -4.79807 -0.606666
4.60026 -18.7289 3.05454
1.48743 -6.0603 -0.545944
4.59452 -18.7196 3.74673
3.69932 -15.0837 -0.813929
4.58468 -18.7078 4.44683
4.14091 -16.9097 -0.303881
4.57567 -18.6992 5.15826
0.738247 -3.03532 -0.837021
4.56944 -18.7874 0.337495
0.853237 -3.51077 -0.834118
4.55685 -18.7641 1.01197
1.04633 -4.31182 -0.862457
4.55048 -18.7664 1.68943
1.12151 -4.6287 -0.754327
4.54504 -18.7583 2.36987
1.16125 -4.79637 -0.605934
4.53393 -18.741 3.05391
1.46205 -6.04802 -0.544375
4.52358 -18.7268 3.74482
3.65995 -15.1631 -0.817488
4.51334 -18.7131 4.44413
4.53149 -18.7883 -0.337355
4.5081 -18.7057 5.15568
0.726747 -3.03412 -0.835986
4.49776 -18.7923 0.337285
0.836738 -3.49871 -0.830519
4.48947 -18.7721 1.01155
1.02944 -4.30781 -0.86093
4.48217 -18.7706 1.68838
1.10351 -4.6249 -0.753076
4.47303 -18.7613 2.36817
1.14826 -4.8199 -0.608372
4.46665 -18.749 3.05266
1.43955 -6.04727 -0.543852
4.45591 -18.7329 3.74291
3.61069 -15.1914 -0.818325
4.44664 -18.723 4.44278
4.46542 -18.8021 -0.33732
4.45884 -18.789 5.17431
0.717482 -3.04228 -0.837538
4.43175 -18.7915 0.337006
0.826025 -3.50526 -0.831419
4.41888 -18.7663 1.0104
1.0099 -4.29226 -0.857114
4.41708 -18.788 1.68856
1.09134 -4.642 -0.755266
4.40807 -18.7644 2.3667
1.12683 -4.80049 -0.605447
4.40208 -18.7684 3.05329
1.41752 -6.04838 -0.543503
4.39107 -18.7361 3.74062
3.55574 -15.1838 -0.817278
4.38231 -18.7282 4.44053
4.39748 -18.8078 -0.337146
4.41872 -18.9135 5.20433
0.710013 -3.05593 -0.840644
4.36567 -18.805 0.336971
0.812903 -3.50432 -0.830519
4.35154 -18.7738 1.00998
1.0063 -4.34149 -0.866273
4.38307 -18.9249 1.69954
1.07512 -4.64578 -0.755266
4.36982 -18.8977 2.38157
4.33076 -18.7586 3.04922
4.32609 -18.7533 3.741
3.51348 -15.2428 -0.81979
4.31297 -18.7263 4.43648
4.32822 -18.8075 -0.336866
6.01296 -26.1491 7.18948
0.697619 -3.05086 -0.838574
4.3 -18.8201 0.336971
0.8011 -3.50904 -0.830969
4.28287 -18.7753 1.00925
0.975424 -4.27607 -0.852535
4.30591 -18.8915 1.69518
1.06197 -4.66299 -0.757456
4.30339 -18.9109 2.38133
4.26044 -18.7524 3.04578
4.26016 -18.7663 3.74062
3.46467 -15.2745 -0.820837
4.24672 -18.7374 4.43558
4.26121 -18.8166 -0.336762
5.91652 -26.1473 7.18326
0.685269 -3.04573 -0.836503
4.22946 -18.8135 0.336587
0.791409 -3.52322 -0.833669
4.21818 -18.794 1.00946
0.959632 -4.27562 -0.851771
4.23733 -18.8947 1.69413
4.23388 -18.9103 2.37938
4.19625 -18.7729 3.04672
4.1895 -18.7581 3.73604
3.43396 -15.3879 -0.82628
4.17705 -18.7331 4.43109
4.19159 -18.8138 -0.336448
5.82186 -26.1527 7.17912
0.675468 -3.05188 -0.837538
4.16031 -18.8125 0.336308
0.775321 -3.50884 -0.829619
4.15212 -18.8067 1.00935
0.950627 -4.30578 -0.857114
4.17306 -18.9172 1.69483
4.16443 -18.9095 2.37743
4.129 -18.7798 3.04547
4.12147 -18.7611 3.73375
3.38279 -15.4115 -0.826908
4.11288 -18.7533 4.43244
4.1259 -18.8283 -0.336448
5.72805 -26.1615 7.17602
0.664811 -3.05422 -0.837538
4.09291 -18.8191 0.336168
0.766379 -3.52676 -0.833219
4.08349 -18.8074 1.00862
4.107 -18.9316 1.69483
0.671205 -3.0966 -0.501842
4.09588 -18.9122 2.37596
4.06217 -18.7883 3.04453
4.05512 -18.7715 3.73299
3.34161 -15.4817 -0.830048
4.04329 -18.7485 4.42794
4.05846 -18.8348 -0.336308
5.3228 -24.7234 6.7764
0.654954 -3.0603 -0.838574
4.02594 -18.8274 0.336064
0.754064 -3.52941 -0.833219
4.01364 -18.802 1.00757
4.04006 -18.942 1.69448
0.663274 -3.11244 -0.504032
4.02777 -18.9167 2.37475
3.99286 -18.7849 3.04171
3.98631 -18.7702 3.72993
3.31574 -15.6262 -0.837166
3.97742 -18.7606 4.42749
3.99103 -18.841 -0.336168
5.23487 -24.7342 6.77433
0.644268 -3.06257 -0.838574
3.95897 -18.8355 0.335959
0.739736 -3.52249 -0.830969
3.95045 -18.8113 1.00736
3.97065 -18.9404 1.69309
0.650786 -3.10701 -0.50278
3.9609 -18.9268 2.37426
3.92732 -18.7826 3.03921
3.92077 -18.784 3.72993
3.28972 -15.7745 -0.844493
3.90992 -18.7648 4.42524
3.92568 -18.8404 -0.335924
5.15046 -24.7401 6.77122
0.631227 -3.05345 -0.835468
3.89486 -18.8407 0.335819
0.726869 -3.5192 -0.829619
3.88395 -18.8211 1.00715
3.9033 -18.9482 1.69256
0.636493 -3.0898 -0.499652
3.89692 -18.934 2.37353
3.86133 -18.7943 3.0389
3.85648 -18.7873 3.72803
3.84454 -18.7624 4.42164
3.85788 -18.8442 -0.335749
5.05942 -24.7352 6.76501
0.624561 -3.07256 -0.840127
3.82509 -18.8346 0.33547
0.71458 -3.52171 -0.829619
3.81823 -18.8345 1.00715
3.83768 -18.9474 1.69134
0.608073 -3.00488 -0.485573
3.82765 -18.9319 2.37158
3.79297 -18.7941 3.03671
3.787 -18.7814 3.72421
3.77941 -18.7776 4.42209
3.79169 -18.8556 -0.335714
4.97229 -24.749 6.76398
0.61421 -3.07662 -0.840644
3.75972 -18.8498 0.335505
0.702283 -3.52418 -0.829619
3.74934 -18.832 1.00632
3.77268 -18.9666 1.69187
0.599505 -3.01667 -0.487137
3.76078 -18.9412 2.37109
3.72849 -18.813 3.03764
3.71951 -18.7849 3.7223
3.71044 -18.7735 4.41804
3.72546 -18.8668 -0.33568
4.88138 -24.7434 6.75777
0.603467 -3.07874 -0.840644
3.69236 -18.8549 0.335365
0.691473 -3.53426 -0.831419
3.68052 -18.8293 1.00548
3.70416 -18.9679 1.69082
0.591241 -3.03038 -0.489014
3.69198 -18.9406 2.36938
0.57677 -2.9617 -0.370483
3.6594 -18.8085 3.03483
3.65466 -18.8016 3.72307
3.64303 -18.7767 4.41579
3.65577 -18.86 -0.335331
3.67621 -18.9832 5.18104
0.591256 -3.07324 -0.838574
3.62501 -18.8599 0.335226
0.682808 -3.55579 -0.835918
3.61251 -18.8303 1.00485
3.63868 -18.9846 1.69117
0.58066 -3.03242 -0.489014
3.6236 -18.9417 2.36792
0.562701 -2.9442 -0.368045
3.59114 -18.8075 3.03264
3.58791 -18.8085 3.72192
3.57673 -18.7855 4.41489
3.58655 -18.855 -0.335016
3.59586 -18.9219 5.16085
0.579809 -3.07149 -0.837538
3.55841 -18.8685 0.335156
0.668948 -3.5505 -0.834118
3.54824 -18.8506 1.00527
3.56981 -18.9835 1.68995
0.568977 -3.0286 -0.488076
3.56112 -18.9737 2.37036
0.546567 -2.91493 -0.364146
3.52582 -18.8219 3.03295
3.52079 -18.8132 3.72039
3.51185 -18.8017 4.41579
3.52071 -18.8674 -0.335016
3.50005 -18.7748 5.11737
0.569788 -3.07729 -0.838574
3.48925 -18.8631 0.334842
0.656196 -3.55089 -0.833669
3.48242 -18.8629 1.00527
3.4916 -18.9312 1.6842
0.556254 -3.01892 -0.486198
3.46899 -18.8455 2.35281
0.537107 -2.92072 -0.364633
3.45903 -18.8283 3.03201
3.45297 -18.8137 3.7181
3.44515 -18.8081 4.41444
3.45375 -18.8737 -0.334912
3.43449 -18.7869 5.11737
0.560422 -3.08687 -0.840644
3.42232 -18.8692 0.334737
0.642755 -3.54741 -0.832319
3.41807 -18.8645 1.00475
3.41061 -18.8609 1.67688
0.544308 -3.01306 -0.484947
3.40037 -18.8418 2.35086
0.529726 -2.93821 -0.366583
3.39658 -18.8396 3.03201
3.38484 -18.8122 3.71543
3.37672 -18.8047 4.41084
3.39362 -18.8988 -0.335156
3.37115 -18.7925 5.11582
0.548629 -3.0831 -0.839091
3.35973 -18.8805 0.334737
0.630988 -3.54952 -0.832319
3.34835 -18.8547 1.00359
3.3444 -18.8707 1.6767
0.532934 -3.00707 -0.483695
3.33683 -18.8472 2.35013
0.510991 -2.88913 -0.360246
3.32873 -18.8397 3.03014
3.32278 -18.8252 3.71581
3.31333 -18.81 4.40949
3.32451 -18.8928 -0.334842
3.30553 -18.8042 5.11582
0.537405 -3.07919 -0.837538
3.29311 -18.8882 0.334667
0.619931 -3.55938 -0.834118
3.28581 -18.8657 1.00359
0.520272 -2.99027 -0.589981
3.28215 -18.8837 1.67688
0.52142 -3.00308 -0.482757
3.27068 -18.8567 2.34988
0.502258 -2.89872 -0.361221
3.26388 -18.837 3.02795
0.51515 -2.97621 -0.264256
3.25605 -18.8309 3.71467
3.24732 -18.8195 4.40904
3.26082 -18.8978 -0.334737
3.24217 -18.8093 5.11426
0.526654 -3.08105 -0.837538
3.22979 -18.895 0.334598
0.609109 -3.56718 -0.835468
3.21926 -18.8731 1.00339
0.493342 -2.8953 -0.570901
3.21387 -18.8813 1.67566
0.50483 -2.96584 -0.476499
3.20647 -18.8577 2.34867
0.490316 -2.88667 -0.359515
3.1981 -18.8483 3.02795
0.493438 -2.9112 -0.25833
3.1926 -18.8358 3.71353
3.18457 -18.8283 4.40859
3.19184 -18.8913 -0.334423
3.1736 -18.8034 5.10961
0.516533 -3.08668 -0.838574
3.15886 -18.8969 0.334423
0.594747 -3.5617 -0.833669
3.14941 -18.8809 1.00318
0.489693 -2.93573 -0.578533
3.14532 -18.8767 1.67426
0.51147 -3.07289 -0.493394
3.13733 -18.8693 2.34867
0.479733 -2.88844 -0.359515
3.129 -18.8599 3.02795
0.480664 -2.89718 -0.256935
3.12161 -18.8357 3.71124
3.1149 -18.836 4.40769
3.12421 -18.9128 -0.334598
3.10372 -18.8092 5.10805
0.505755 -3.08846 -0.838574
3.09127 -18.8979 0.334248
0.58231 -3.56375 -0.833669
3.08317 -18.8898 1.00307
0.479443 -2.93742 -0.578533
3.07845 -18.8816 1.67374
3.0689 -18.8645 2.34672
0.467737 -2.87834 -0.358052
3.06252 -18.8668 3.02732
0.471187 -2.90277 -0.257284
