31.0087 -11.3353 7.62224
7.85577 -2.87325 -0.146007
29.5677 -10.8202 8.43647
2.75271 -1.01116 -0.785775
10.5353 -3.87205 0.195921
3.03613 -1.11648 -0.746837
3.451 -1.26972 -0.714771
25.4413 -9.36563 2.37186
3.88893 -1.43239 -0.656399
27.2653 -10.0479 3.56785
4.52778 -1.66949 -0.592529
29.7359 -10.9702 5.01998
5.34977 -1.97364 -0.498879
31.5535 -11.647 6.53788
6.39449 -2.36159 -0.357245
7.8682 -2.90897 -0.146426
2.74192 -1.01808 -0.783704
10.5217 -3.9088 0.195921
3.04135 -1.13046 -0.749087
15.7304 -5.85007 0.879558
3.42079 -1.27218 -0.709428
25.4029 -9.45229 2.37133
3.92094 -1.45974 -0.662656
27.2598 -10.1541 3.57175
4.54052 -1.69221 -0.594966
29.7122 -11.0794 5.02249
5.33538 -1.98951 -0.498182
30.8303 -11.5024 6.3963
6.31137 -2.35596 -0.353058
30.7572 -11.4874 7.57995
7.82053 -2.92242 -0.145728
2.72732 -1.02404 -0.780598
10.541 -3.96 0.196549
3.04084 -1.14298 -0.749987
3.39405 -1.27642 -0.704848
25.3923 -9.55446 2.3736
3.84161 -1.44626 -0.650142
27.2187 -10.2525 3.57126
4.52315 -1.70464 -0.593504
29.6586 -11.1775 5.01998
5.31687 -2.00484 -0.497136
30.7879 -11.6154 6.3963
6.42228 -2.42421 -0.359757
30.693 -11.5918 7.57455
7.84021 -2.96101 -0.146286
29.7708 -11.2495 8.52757
2.72192 -1.03287 -0.780081
10.5166 -3.99067 0.19634
3.02063 -1.14683 -0.745938
3.43729 -1.30639 -0.714771
24.2824 -9.23372 2.27285
3.86634 -1.47023 -0.655148
27.3589 -10.4091 3.59417
4.52118 -1.72105 -0.593991
29.0656 -11.07 4.92612
5.29122 -2.01629 -0.495393
37.0711 -14.1264 7.71136
30.7782 -11.7407 7.60515
7.85599 -2.99834 -0.146775
2.7275 -1.04535 -0.782669
10.5026 -4.02736 0.19634
3.00751 -1.15387 -0.743688
3.4476 -1.32341 -0.717823
21.5622 -8.28126 2.02079
3.90543 -1.50072 -0.662656
27.1779 -10.449 3.57516
4.49291 -1.72827 -0.591066
28.3373 -10.906 4.80911
5.3031 -2.04098 -0.497136
37.1132 -14.291 7.73044
6.35344 -2.44777 -0.356827
31.5516 -12.1621 7.8067
7.87906 -3.03869 -0.147403
2.73464 -1.05905 -0.785775
10.5071 -4.07122 0.196689
3.01255 -1.16789 -0.745938
15.7403 -6.10525 0.884792
3.42832 -1.32976 -0.714771
25.3817 -9.85002 2.38197
3.87071 -1.5029 -0.657651
27.0969 -10.5265 3.56931
4.49425 -1.74682 -0.592041
29.4957 -11.4703 5.01247
5.31451 -2.0667 -0.498879
40.609 -15.8001 8.47001
6.34486 -2.46993 -0.356827
33.9096 -13.2072 8.40147
7.86095 -3.06328 -0.147263
2.72733 -1.06718 -0.784739
10.545 -4.12828 0.197666
3.0139 -1.18053 -0.747287
3.43097 -1.34458 -0.716297
25.3991 -9.95893 2.38685
3.8728 -1.51929 -0.658902
27.1486 -10.6558 3.58101
4.5066 -1.76975 -0.594479
29.3766 -11.5362 4.99871
5.27018 -2.07067 -0.495393
36.8298 -14.478 7.69227
6.38824 -2.51253 -0.359757
33.9775 -13.3704 8.42982
7.83958 -3.08493 -0.147054
32.0216 -12.6072 9.22121
2.71101 -1.07172 -0.781116
10.5089 -4.15441 0.197247
3.02084 -1.19482 -0.749987
3.4153 -1.35221 -0.714007
25.2938 -10.0196 2.38022
3.87141 -1.53358 -0.659528
27.0947 -10.7385 3.57857
4.47857 -1.7759 -0.591554
28.1757 -11.1783 4.80097
5.31107 -2.10816 -0.499925
35.6138 -14.1364 7.44804
6.37988 -2.5337 -0.359757
31.2183 -12.4043 7.75541
7.89195 -3.1374 -0.148241
31.9164 -12.6946 9.20361
2.71283 -1.08286 -0.782669
10.5055 -4.19552 0.197457
3.01665 -1.20535 -0.749987
15.6766 -6.267 0.884792
3.42903 -1.37082 -0.717823
25.168 -10.0665 2.37151
3.90271 -1.56176 -0.665785
27.0939 -10.8478 3.58345
4.4834 -1.79595 -0.593016
29.266 -11.7293 4.9937
5.30367 -2.12669 -0.499925
33.8185 -13.5607 7.08245
6.43772 -2.58273 -0.363526
31.0627 -12.4682 7.72752
7.83641 -3.14704 -0.147403
31.922 -12.8261 9.2181
2.71601 -1.09568 -0.784739
10.5167 -4.24264 0.197945
2.99074 -1.20712 -0.744588
15.6546 -6.32169 0.884792
3.42398 -1.38338 -0.717823
24.972 -10.0944 2.35652
3.91527 -1.58346 -0.668914
26.9307 -10.8917 3.56687
4.4771 -1.81159 -0.593016
29.3531 -11.8833 5.0156
5.32207 -2.15566 -0.502366
34.5019 -13.9817 7.23624
6.31716 -2.56128 -0.357245
30.9265 -12.5454 7.70502
7.88468 -3.19843 -0.14852
2.71216 -1.10516 -0.784739
10.5085 -4.28417 0.198085
2.98991 -1.21955 -0.745488
3.44821 -1.40719 -0.723929
24.1398 -9.85619 2.28121
3.89144 -1.58965 -0.665785
26.7694 -10.9407 3.55079
4.47043 -1.82799 -0.593016
29.1908 -11.9363 4.99495
5.27763 -2.15914 -0.498879
33.8006 -13.8351 7.09924
6.36363 -2.60602 -0.360385
30.8933 -12.6577 7.70772
7.82905 -3.20774 -0.147682
31.7674 -13.0223 9.19946
2.69757 -1.11021 -0.781634
10.5202 -4.32965 0.198573
3.01468 -1.24133 -0.752686
15.6101 -6.43082 0.884792
3.41787 -1.40874 -0.718587
24.0168 -9.90393 2.27285
3.85692 -1.5905 -0.660779
27.0376 -11.1551 3.59125
4.44966 -1.83675 -0.591066
29.0759 -12.008 4.98244
5.32531 -2.20037 -0.504109
33.544 -13.8601 7.05497
6.31804 -2.61185 -0.358292
30.8782 -12.7712 7.71447
7.8252 -3.2381 -0.147822
31.7217 -13.1331 9.19946
2.69566 -1.11989 -0.782151
10.5271 -4.37556 0.198992
2.99953 -1.24736 -0.749987
3.42768 -1.4261 -0.72164
24.0648 -10.0172 2.28052
3.84406 -1.60091 -0.659528
27.0608 -11.2754 3.59953
4.45055 -1.85532 -0.592041
29.014 -12.0952 4.97868
5.29959 -2.21035 -0.502366
33.3559 -13.9189 7.02559
6.35312 -2.65236 -0.360804
30.7849 -12.8586 7.70232
7.85132 -3.27945 -0.14852
2.70777 -1.13602 -0.78681
10.5236 -4.41508 0.199202
2.99897 -1.2588 -0.750887
15.658 -6.57559 0.890025
3.39734 -1.42741 -0.716297
23.8791 -10.0378 2.26622
3.83144 -1.61059 -0.658276
27.0342 -11.3697 3.601
4.47365 -1.88239 -0.595941
29.1682 -12.2792 5.01247
5.28083 -2.2242 -0.50132
33.3602 -14.0508 7.03627
6.35533 -2.67806 -0.361432
30.681 -12.9349 7.68703
7.83983 -3.30684 -0.14852
30.4249 -12.8394 8.84851
2.69687 -1.14198 -0.784739
10.5192 -4.45647 0.199411
2.98379 -1.2647 -0.748187
3.42151 -1.45093 -0.722403
24.8691 -10.5512 2.36349
3.84034 -1.63013 -0.660779
26.9651 -11.4516 3.5971
4.44878 -1.89023 -0.593504
29.187 -12.4072 5.02311
5.28809 -2.24793 -0.502714
33.6019 -14.2908 7.09771
6.32756 -2.69241 -0.360385
30.8831 -13.1473 7.74911
7.82824 -3.33418 -0.14852
30.1915 -12.8653 8.79364
2.69287 -1.15138 -0.784739
10.4925 -4.48844 0.199202
2.98294 -1.27664 -0.749087
3.38033 -1.44741 -0.714771
22.5136 -9.64467 2.14281
3.82737 -1.64041 -0.659528
26.8994 -11.5347 3.59368
4.43121 -1.90105 -0.592041
29.1326 -12.5043 5.02123
5.28021 -2.26638 -0.502714
6.37318 -2.73813 -0.363526
35.0049 -15.0465 8.79649
7.85329 -3.37729 -0.149218
29.7418 -12.7965 8.67561
2.69238 -1.16231 -0.785775
10.5356 -4.55042 0.200319
2.99099 -1.29246 -0.752236
15.68 -6.77883 0.895259
3.38246 -1.46232 -0.716297
22.4541 -9.71213 2.14037
3.83975 -1.66161 -0.662656
26.6149 -11.5228 3.56102
4.43912 -1.92282 -0.593991
28.9474 -12.5447 4.99683
5.30518 -2.29905 -0.505852
34.0381 -14.7578 7.21144
6.36358 -2.76036 -0.363526
34.988 -15.1842 8.80548
7.80477 -3.38875 -0.14852
29.4205 -12.7802 8.59486
2.68122 -1.16861 -0.783704
10.5013 -4.57917 0.19997
2.97753 -1.299 -0.749987
3.39173 -1.4804 -0.71935
22.4037 -9.78327 2.1388
3.85202 -1.68291 -0.665785
26.5018 -11.5838 3.55127
4.44693 -1.94467 -0.595941
28.889 -12.6393 4.99433
5.26426 -2.30318 -0.502714
34.3856 -15.0513 7.29615
6.31732 -2.76654 -0.361432
30.2207 -13.2408 7.61729
7.82952 -3.43203 -0.149218
29.5385 -12.9542 8.64249
2.68773 -1.18263 -0.78681
10.5475 -4.64319 0.201156
2.97476 -1.31017 -0.750437
3.39732 -1.49698 -0.72164
21.518 -9.48609 2.0574
3.84613 -1.69634 -0.665785
13.2651 -5.85336 1.78027
4.44738 -1.96338 -0.596916
12.8132 -5.65933 2.21855
5.289 -2.33603 -0.505852
33.5068 -14.8062 7.12061
6.34415 -2.80472 -0.363526
30.1797 -13.3486 7.61864
7.81749 -3.45934 -0.149218
29.5108 -13.065 8.64766
2.68712 -1.19357 -0.787845
10.575 -4.69947 0.201994
2.95949 -1.31579 -0.747737
15.7906 -7.02383 0.905726
3.38849 -1.50724 -0.720876
3.84018 -1.70976 -0.665785
13.2137 -5.8859 1.77612
4.43688 -1.97728 -0.596429
12.8115 -5.71207 2.22168
5.28445 -2.3561 -0.506201
6.33433 -2.82685 -0.363526
30.2859 -13.5222 7.65733
7.81998 -3.49313 -0.149497
29.7613 -13.3004 8.73463
2.67589 -1.19979 -0.785775
10.5513 -4.73308 0.201855
2.96199 -1.32931 -0.749537
3.39037 -1.52227 -0.722403
22.2945 -10.0149 2.13828
3.83419 -1.72315 -0.665785
4.41546 -1.98624 -0.594479
12.9085 -5.80945 2.24202
5.28709 -2.37944 -0.507246
33.6389 -15.1462 7.17098
6.32442 -2.84894 -0.363526
30.2599 -13.6374 7.66273
7.79315 -3.51383 -0.149218
30.6691 -13.8347 9.01519
2.67168 -1.20912 -0.785775
10.5493 -4.77648 0.202134
2.96265 -1.34205 -0.750887
3.36 -1.52275 -0.71706
21.3014 -9.65824 2.04624
3.80297 -1.7251 -0.661405
26.6339 -12.0873 3.59125
4.41935 -2.00657 -0.595941
12.8036 -5.81607 2.22731
5.26424 -2.39129 -0.505852
33.7467 -15.3366 7.20533
6.31444 -2.871 -0.363526
30.173 -13.7252 7.65283
7.78812 -3.54433 -0.149358
30.6558 -13.9577 9.02554
2.66217 -1.21603 -0.784222
10.5398 -4.8166 0.202273
2.97213 -1.35887 -0.754486
3.35467 -1.53447 -0.71706
21.2929 -9.74415 2.04868
3.84003 -1.7581 -0.668914
26.4002 -12.0925 3.56541
4.41232 -2.02198 -0.595941
12.6611 -5.80475 2.20604
5.22326 -2.39471 -0.502714
33.2665 -15.2587 7.11412
6.30438 -2.89303 -0.363526
30.2489 -13.8874 7.68433
7.83748 -3.59987 -0.150544
2.6737 -1.23259 -0.78888
10.5084 -4.84666 0.201994
2.95852 -1.36515 -0.752236
15.8723 -7.32732 0.916193
3.35999 -1.55111 -0.71935
21.1701 -9.77748 2.04014
3.798 -1.75492 -0.662656
26.2786 -12.148 3.55469
4.42685 -2.04737 -0.598866
12.605 -5.83232 2.19978
5.22934 -2.41962 -0.504109
33.7208 -15.6098 7.22288
6.29424 -2.91502 -0.363526
32.1346 -14.8891 8.17652
7.78859 -3.61039 -0.149846
32.0227 -14.8509 9.45828
2.66063 -1.23784 -0.786292
10.5132 -4.89344 0.202413
2.95904 -1.37794 -0.753586
3.37591 -1.57278 -0.723929
21.3002 -9.92791 2.056
3.80976 -1.77652 -0.665785
21.1036 -9.84525 2.8593
4.40889 -2.05777 -0.597404
12.5881 -5.87795 2.20041
5.24252 -2.44797 -0.506201
32.5579 -15.2097 6.98514
6.28403 -2.93697 -0.363526
31.4011 -14.6826 8.00286
7.82303 -3.65958 -0.150754
8.16415 -3.82089 2.4153
2.65454 -1.2463 -0.785775
10.5358 -4.94881 0.203181
2.9401 -1.38163 -0.749987
3.3704 -1.58455 -0.723929
21.0977 -9.92334 2.03979
3.82141 -1.79822 -0.668914
26.4553 -12.4546 3.59027
4.39449 -2.06977 -0.596429
12.6926 -5.9808 2.22231
5.23395 -2.46626 -0.506201
32.4851 -15.314 6.98094
6.30986 -2.97593 -0.365619
31.3708 -14.8021 8.00826
7.77042 -3.66809 -0.149986
8.14902 -3.84854 2.41478
2.64319 -1.25225 -0.783704
10.5294 -4.9907 0.20339
2.94054 -1.39439 -0.751337
15.8321 -7.50749 0.918287
3.30099 -1.56601 -0.710191
21.0756 -10.0029 2.04101
3.81511 -1.81155 -0.668914
26.4798 -12.5792 3.59953
4.39836 -2.08944 -0.597891
12.6227 -5.99911 2.21355
5.20371 -2.47425 -0.504109
11.9227 -5.67151 2.56638
6.26337 -2.98077 -0.363526
7.78711 -3.70759 -0.150544
8.14842 -3.88136 2.41841
2.646 -1.26434 -0.785775
10.5091 -5.02386 0.203321
2.94997 -1.41086 -0.754936
15.5549 -7.43931 0.903633
3.34891 -1.60237 -0.72164
15.5359 -7.43691 1.50692
3.88034 -1.85832 -0.681429
26.4595 -12.6772 3.60246
4.38783 -2.1023 -0.597404
11.7477 -5.63109 2.06337
5.23141 -2.50872 -0.507595
11.8967 -5.70762 2.56485
6.30027 -3.02399 -0.366247
36.4722 -17.5059 9.33997
7.80722 -3.74897 -0.151173
8.13376 -3.90752 2.41789
2.64527 -1.27479 -0.78681
10.5176 -5.07084 0.203809
2.92421 -1.41047 -0.749537
15.1763 -7.32343 0.883117
3.32943 -1.60664 -0.718587
15.1308 -7.30475 1.46997
3.80301 -1.83681 -0.668914
26.4173 -12.7649 3.60246
4.37689 -2.11587 -0.596916
11.7138 -5.66519 2.06087
5.22306 -2.52605 -0.507595
11.9237 -5.76927 2.57478
6.30818 -3.05357 -0.367294
31.5596 -15.2837 8.09554
7.80488 -3.78143 -0.151382
8.0853 -3.91904 2.40753
2.64775 -1.28739 -0.78888
10.4999 -5.10753 0.203809
2.92978 -1.42579 -0.752236
14.8202 -7.21549 0.863857
3.32733 -1.61997 -0.71935
14.7416 -7.18041 1.43458
3.82143 -1.86219 -0.673294
26.3583 -12.8501 3.60051
4.39446 -2.14332 -0.600328
11.6371 -5.67832 2.05086
5.19631 -2.53553 -0.505852
12.1028 -5.90817 2.6179
6.32261 -3.08784 -0.368759
7.81319 -3.81919 -0.151801
2.6363 -1.29322 -0.78681
10.543 -5.1741 0.204996
2.92129 -1.43429 -0.751337
14.4376 -7.08855 0.842923
3.30051 -1.62119 -0.714771
14.3767 -7.06487 1.40146
3.81491 -1.87551 -0.673294
26.299 -12.935 3.59856
4.37983 -2.15514 -0.599353
11.5739 -5.69508 2.04303
5.2339 -2.57653 -0.510384
12.2318 -6.02412 2.65034
6.31179 -3.10989 -0.368759
42.4186 -20.9093 10.9182
7.79331 -3.84154 -0.151661
2.64216 -1.30756 -0.789916
10.5366 -5.21436 0.205205
2.92874 -1.45002 -0.754486
14.0548 -6.96161 0.821989
3.32649 -1.64839 -0.72164
14.0164 -6.94864 1.36869
3.81929 -1.89342 -0.675171
26.256 -13.0222 3.59856
4.39399 -2.18024 -0.602278
11.6301 -5.77321 2.05649
5.20703 -2.58593 -0.508641
12.1626 -6.04019 2.63965
6.25852 -3.10948 -0.366247
7.77269 -3.86516 -0.151522
30.8774 -15.3613 9.24088
2.6309 -1.31286 -0.787845
10.5237 -5.25378 0.20531
2.93935 -1.46807 -0.758535
13.7482 -6.86957 0.80545
3.27857 -1.63893 -0.712481
13.6778 -6.8374 1.33784
3.84799 -1.92441 -0.681429
26.2281 -13.1226 3.601
4.40056 -2.20267 -0.604228
11.677 -5.84738 2.06838
5.21935 -2.61479 -0.510733
12.1825 -6.10584 2.64881
6.24708 -3.1324 -0.366247
34.2237 -17.1604 8.83878
7.80562 -3.91558 -0.152429
9.75366 -4.89492 2.92414
2.62262 -1.32076 -0.78681
10.5186 -5.29952 0.205589
2.92699 -1.47532 -0.756735
13.3377 -6.72567 0.782841
3.3076 -1.66862 -0.720113
13.3431 -6.73134 1.30751
3.8127 -1.92426 -0.676423
12.996 -6.56191 1.78758
4.37119 -2.20805 -0.601303
11.6167 -5.87054 2.06149
5.23107 -2.64469 -0.512824
12.195 -6.16818 2.65644
6.32109 -3.19856 -0.371271
34.1814 -17.2962 8.84418
7.81263 -3.955 -0.152848
8.18802 -4.14683 2.4593
2.63498 -1.33912 -0.791986
10.5383 -5.35797 0.206357
2.91809 -1.48428 -0.755836
13.0898 -6.6581 0.769653
3.31226 -1.68549 -0.722403
13.0343 -6.63558 1.27962
3.76337 -1.91671 -0.668914
12.3776 -6.30669 1.70568
4.36346 -2.22329 -0.601303
11.5609 -5.89311 2.05524
5.2218 -2.66294 -0.512824
12.1787 -6.21338 2.65759
6.24941 -3.18973 -0.367712
35.2456 -17.9895 9.13571
7.78809 -3.97679 -0.152639
8.10124 -4.13848 2.43756
2.63396 -1.34961 -0.793022
10.5419 -5.40384 0.206776
2.90968 -1.49217 -0.754936
12.762 -6.54471 0.751649
3.29617 -1.69109 -0.720113
12.7676 -6.55321 1.25557
3.79214 -1.94722 -0.675171
12.934 -6.64431 1.78539
4.35606 -2.23775 -0.601303
11.4851 -5.90252 2.04522
5.24838 -2.69846 -0.516311
11.828 -6.08401 2.58546
6.20328 -3.19216 -0.365619
35.2724 -18.1509 9.15821
7.81397 -4.02273 -0.153407
8.09434 -4.16886 2.43963
2.60716 -1.34681 -0.786292
10.563 -5.45896 0.207544
2.91857 -1.50897 -0.758535
12.512 -6.47177 0.738251
3.27659 -1.6948 -0.71706
12.4521 -6.44351 1.22663
3.77514 -1.95434 -0.673294
13.0952 -6.78211 1.81073
4.35527 -2.25659 -0.602278
12.2606 -6.35529 2.18727
5.20403 -2.69751 -0.512824
11.7015 -6.06807 2.56218
6.19266 -3.21271 -0.365619
8.05845 -4.18246 2.09609
7.78924 -4.04446 -0.153197
8.04888 -4.18106 2.43031
2.60758 -1.35858 -0.787845
10.6006 -5.52538 0.208661
2.90983 -1.51734 -0.757635
12.2237 -6.37683 0.72255
3.29154 -1.71712 -0.72164
12.1893 -6.36157 1.20292
3.78405 -1.97573 -0.67611
13.1119 -6.84892 1.81634
4.36848 -2.28282 -0.605203
11.9618 -6.25345 2.13783
5.24049 -2.73966 -0.517356
11.6472 -6.09159 2.55493
6.25219 -3.27135 -0.369806
8.0697 -4.22412 2.10284
7.79633 -4.08275 -0.153616
7.92129 -4.14996 2.39615
2.59599 -1.36408 -0.785775
10.5812 -5.56235 0.208661
2.90624 -1.5284 -0.758085
3.30638 -1.73957 -0.726219
11.9096 -6.26859 1.17747
3.75965 -1.97973 -0.672981
12.9369 -6.81508 1.79538
4.33941 -2.28695 -0.602278
11.9049 -6.27674 2.13158
5.21327 -2.74864 -0.515613
11.6033 -6.1203 2.54997
6.20894 -3.27637 -0.367922
8.11177 -4.28228 2.11769
7.77496 -4.10621 -0.153476
7.91359 -4.18119 2.39822
2.60316 -1.37946 -0.789398
10.5759 -5.60674 0.20894
2.86989 -1.5221 -0.749987
11.7414 -6.22986 0.696592
3.28988 -1.74558 -0.723929
11.6729 -6.19616 1.15621
3.72481 -1.97801 -0.667975
12.878 -6.84157 1.7905
4.34893 -2.3114 -0.604716
9.50215 -5.05238 1.70451
5.21068 -2.77057 -0.516311
11.9961 -6.38113 2.64118
6.25388 -3.32805 -0.371271
8.06581 -4.29409 2.10959
7.78882 -4.14836 -0.154035
7.74891 -4.12885 2.35267
2.60173 -1.39036 -0.790433
10.5739 -5.65305 0.209289
2.88519 -1.54313 -0.755386
11.5153 -6.1615 0.68445
3.29415 -1.76261 -0.726219
11.4299 -6.1184 1.13424
3.74574 -2.00592 -0.672981
12.9257 -6.92491 1.8005
4.33384 -2.32281 -0.603741
9.51405 -5.10139 1.70983
5.21151 -2.79439 -0.517356
12.0032 -6.43874 2.64767
6.22463 -3.34042 -0.370225
7.97179 -4.27981 2.0889
7.78838 -4.1831 -0.154314
7.5881 -4.07724 2.30815
2.60197 -1.40219 -0.791986
10.6104 -5.72029 0.210406
2.89007 -1.55875 -0.758085
11.2968 -6.09544 0.672726
3.28798 -1.7741 -0.726219
11.2121 -6.05226 1.11472
3.73872 -2.01899 -0.672981
11.1585 -6.02833 1.55725
4.32221 -2.33604 -0.603253
11.908 -6.43865 2.14409
5.20172 -2.81256 -0.517356
11.5558 -6.25081 2.55379
6.18834 -3.34882 -0.368759
7.79132 -4.21978 -0.154663
7.40737 -4.01351 2.25742
2.58687 -1.40573 -0.78888
10.5834 -5.75348 0.210267
2.8829 -1.56789 -0.757635
11.0264 -5.99929 0.657863
3.27142 -1.77993 -0.723929
10.9704 -5.97134 1.09276
3.73165 -2.03203 -0.672981
10.9561 -5.96848 1.5319
4.33146 -2.36061 -0.605691
11.5906 -6.31942 2.0909
5.18089 -2.82588 -0.516311
11.5374 -6.29299 2.55455
6.26428 -3.41823 -0.373993
11.4619 -6.257 3.01479
7.79409 -4.25654 -0.155012
7.35941 -4.02081 2.24707
2.59017 -1.41984 -0.791469
10.5702 -5.79423 0.210406
2.88595 -1.58263 -0.759885
10.8337 -5.9436 0.647605
3.25455 -1.78625 -0.72164
10.7406 -5.8974 1.07202
3.69993 -2.03237 -0.668601
10.7229 -5.89009 1.50216
4.33885 -2.38432 -0.607884
12.4617 -6.85089 2.25234
5.16401 -2.84011 -0.515613
11.5246 -6.34092 2.55684
6.25171 -3.44117 -0.373993
9.46723 -5.21327 2.49516
7.80371 -4.29722 -0.155501
7.41132 -4.08283 2.26725
2.5852 -1.42887 -0.791469
10.5157 -5.81455 0.209743
2.88013 -1.5932 -0.759885
10.6067 -5.8673 0.635254
3.2586 -1.8033 -0.723929
10.5474 -5.83932 1.05476
3.72738 -2.06442 -0.674858
10.512 -5.82449 1.47559
4.32488 -2.39732 -0.607153
11.4115 -6.32549 2.0665
5.12618 -2.84266 -0.512824
9.40102 -5.21536 2.08974
6.21171 -3.44746 -0.372318
9.5035 -5.27655 2.50955
7.78866 -4.32443 -0.155501
7.34973 -4.08241 2.25276
2.58357 -1.43977 -0.792504
10.3548 -5.77054 0.206916
2.87143 -1.60084 -0.758985
10.4362 -5.82062 0.626252
3.27972 -1.82997 -0.730035
10.3443 -5.77413 1.03646
3.75501 -2.09602 -0.681116
10.3193 -5.76253 1.45122
4.3117 -2.40874 -0.606422
9.33736 -5.21847 1.69419
5.17188 -2.89165 -0.518402
11.9369 -6.67407 2.65835
6.1619 -3.44659 -0.370015
7.96561 -4.4573 2.10734
7.79795 -4.36527 -0.15599
7.32701 -4.10332 2.25017
2.58552 -1.45211 -0.794574
10.2004 -5.73122 0.204228
2.86583 -1.61086 -0.758985
10.2103 -5.7415 0.613901
3.25652 -1.83121 -0.726219
10.1532 -5.7117 1.0192
3.74767 -2.10912 -0.681116
10.1261 -5.70113 1.42685
4.32921 -2.43839 -0.610078
9.31564 -5.24909 1.69356
5.15185 -2.90292 -0.517356
9.20283 -5.18765 2.05349
6.21594 -3.50536 -0.373993
11.9505 -6.74199 3.16776
7.76873 -4.3846 -0.15571
7.41021 -4.18396 2.2802
2.56026 -1.44971 -0.788363
10.0133 -5.67218 0.200877
2.87036 -1.62662 -0.761684
10.0408 -5.6924 0.604899
3.27402 -1.85612 -0.731562
9.94256 -5.63898 1.00003
3.74028 -2.12219 -0.681116
9.94734 -5.64629 1.40442
4.31032 -2.44761 -0.608616
12.8217 -7.28376 2.33557
5.18326 -2.9445 -0.52154
8.8945 -5.05483 1.98861
6.20367 -3.52704 -0.373993
8.00375 -4.55231 2.12579
7.76728 -4.4196 -0.15599
7.32001 -4.1668 2.2569
2.56861 -1.4663 -0.792504
9.62531 -5.49686 0.193477
2.85451 -1.63083 -0.758985
9.83362 -5.62037 0.593594
3.2607 -1.86364 -0.730035
9.78618 -5.59553 0.986254
3.73285 -2.13523 -0.681116
9.76045 -5.58534 1.38078
4.30175 -2.46264 -0.608616
13.0431 -7.46984 2.38062
5.14183 -2.94475 -0.518402
8.92109 -5.11123 1.99853
6.19132 -3.54867 -0.373993
8.03684 -4.60833 2.13883
7.76568 -4.45465 -0.156269
7.33056 -4.20675 2.26467
2.56013 -1.47333 -0.791469
9.45356 -5.44262 0.190406
2.84542 -1.63883 -0.758085
9.65819 -5.56493 0.584174
3.24057 -1.86717 -0.726982
9.59915 -5.53314 0.969346
3.72538 -2.14825 -0.681116
9.57582 -5.52415 1.35738
4.28625 -2.47367 -0.607641
12.3634 -7.13802 2.2611
5.14532 -2.97065 -0.519797
9.0443 -5.22384 2.03021
6.24115 -3.60623 -0.377761
7.80981 -4.51445 2.0826
7.74316 -4.47773 -0.156129
7.22887 -4.18201 2.23775
2.55857 -1.48375 -0.792504
9.3974 -5.45187 0.189638
2.8602 -1.66 -0.763484
9.48768 -5.50867 0.574963
3.23775 -1.87988 -0.727746
9.46015 -5.49489 0.957144
3.71823 -2.16059 -0.681116
9.41501 -5.47307 1.33715
4.27802 -2.48787 -0.607641
12.128 -7.05581 2.22231
5.15266 -2.99772 -0.52154
9.16946 -5.33675 2.06226
6.16702 -3.59073 -0.373993
7.47822 -4.35592 1.99802
7.72136 -4.49935 -0.15599
7.14153 -4.16315 2.21497
2.55337 -1.49267 -0.792504
9.24885 -5.40892 0.18702
2.8527 -1.66899 -0.763034
9.31671 -5.45297 0.565752
3.21423 -1.88125 -0.723929
9.27413 -5.43023 0.940236
3.71067 -2.17355 -0.681116
9.25712 -5.4246 1.31741
4.27959 -2.50881 -0.609103
12.0624 -7.07411 2.2148
5.15592 -3.02375 -0.522934
9.25407 -5.42933 2.08554
6.20612 -3.64257 -0.377133
7.32853 -4.30306 1.96202
7.72285 -4.5364 -0.156339
7.25354 -4.26243 2.25431
2.54482 -1.49961 -0.791469
8.98185 -5.29494 0.181994
2.84182 -1.67597 -0.761684
9.17721 -5.41442 0.558425
3.22117 -1.90044 -0.726982
9.1007 -5.37142 0.924548
3.70306 -2.18649 -0.681116
9.08772 -5.36804 1.29596
4.27422 -2.52575 -0.609591
9.35426 -5.52989 1.72109
5.12132 -3.02753 -0.520494
8.79401 -5.20076 1.98594
6.1418 -3.6337 -0.373993
7.3185 -4.3316 1.96337
7.71729 -4.56945 -0.156548
7.26521 -4.30348 2.2626
2.54289 -1.51046 -0.792504
8.89627 -5.28642 0.180632
2.84098 -1.68886 -0.763034
9.00719 -5.35658 0.549214
3.21789 -1.91368 -0.727746
8.95861 -5.32981 0.911998
3.6954 -2.19941 -0.681116
8.93418 -5.3195 1.2767
4.28926 -2.55488 -0.613003
9.33829 -5.56453 1.72172
5.13811 -3.06171 -0.523283
8.88036 -5.29375 2.0096
6.12908 -3.65511 -0.373993
7.27656 -4.34114 1.95617
7.74594 -4.623 -0.157456
9.43464 -5.63311 2.94433
2.54589 -1.52429 -0.795092
8.77998 -5.25887 0.178643
2.83005 -1.69577 -0.761684
8.86852 -5.31611 0.541887
3.21792 -1.92894 -0.729272
8.80838 -5.28215 0.898576
3.6877 -2.21229 -0.681116
8.77428 -5.26587 1.25647
4.2735 -2.56575 -0.612028
11.9775 -7.19394 2.21292
5.12739 -3.07963 -0.523283
8.82648 -5.30349 2.00159
6.16079 -3.70324 -0.376714
7.24967 -4.35949 1.95302
7.74346 -4.65826 -0.157735
9.18319 -5.52655 2.87186
2.55213 -1.54015 -0.798716
8.70165 -5.25332 0.177421
2.82412 -1.70563 -0.761684
8.70289 -5.25821 0.532885
3.19773 -1.93204 -0.726219
8.67735 -5.24485 0.887071
3.67996 -2.22515 -0.681116
8.63525 -5.22352 1.23917
4.24075 -2.56626 -0.608616
9.27218 -5.61322 1.71671
5.1132 -3.09544 -0.522934
6.10341 -3.69781 -0.373993
7.25774 -4.39891 1.95932
7.73399 -4.68941 -0.157874
7.19992 -4.3673 2.25638
2.53189 -1.54002 -0.794057
8.55514 -5.2057 0.174803
2.82814 -1.72156 -0.764384
8.56167 -5.21376 0.525348
3.22115 -1.96157 -0.733088
8.52797 -5.19529 0.873649
3.67217 -2.23798 -0.681116
8.5051 -5.18543 1.22308
4.23176 -2.58105 -0.608616
8.47348 -5.1702 1.57217
5.10576 -3.11535 -0.523283
8.69373 -5.30667 1.97983
6.19956 -3.78571 -0.380692
9.58051 -5.85256 2.59189
7.71758 -4.71638 -0.157874
7.19617 -4.39946 2.26001
2.53638 -1.5549 -0.797163
8.39032 -5.14562 0.171801
2.81214 -1.72531 -0.761684
8.41405 -5.16422 0.517393
3.20089 -1.96459 -0.730035
8.37905 -5.14475 0.860227
3.7081 -2.27767 -0.68925
8.36856 -5.14233 1.20602
4.22611 -2.59789 -0.609103
8.36451 -5.14387 1.55527
5.11183 -3.14359 -0.525026
8.6183 -5.30201 1.96686
6.13868 -3.77802 -0.377761
9.00245 -5.54268 2.44072
7.7249 -4.75797 -0.158363
9.18402 -5.65889 2.89049
2.52436 -1.55969 -0.795092
8.26004 -5.10549 0.169498
2.81273 -1.73921 -0.763484
8.28047 -5.12211 0.510276
3.20737 -1.98401 -0.733088
8.24753 -5.10372 0.848548
3.65646 -2.26357 -0.681116
8.23917 -5.10253 1.18993
4.24401 -2.62935 -0.613003
8.21554 -5.09187 1.53087
5.11098 -3.16771 -0.526072
8.61142 -5.3393 1.96953
6.13224 -3.80363 -0.37818
7.0755 -4.39041 1.92243
7.69466 -4.77647 -0.158084
5.89831 -3.66281 1.86039
2.52382 -1.57155 -0.796645
8.11996 -5.05816 0.166985
2.79011 -1.73872 -0.758985
8.16762 -5.09181 0.504414
3.18377 -1.98481 -0.729272
8.13837 -5.07555 0.839135
3.64853 -2.27632 -0.681116
8.10511 -5.05874 1.17311
4.21797 -2.63363 -0.610565
8.08379 -5.04935 1.50959
5.0999 -3.18553 -0.526072
8.9024 -5.56284 2.04051
6.15958 -3.85043 -0.380692
7.075 -4.42438 1.92648
7.71184 -4.82451 -0.158782
5.8642 -3.67006 1.85366
2.51832 -1.58035 -0.796645
7.99048 -5.0163 0.164681
2.79062 -1.75259 -0.760784
8.02465 -5.04166 0.496668
3.17682 -1.99591 -0.729272
8.00252 -5.02971 0.826934
3.67401 -2.31007 -0.687373
7.98491 -5.02253 1.15825
4.22555 -2.65891 -0.613003
7.97584 -5.02071 1.4927
5.07863 -3.19695 -0.525026
9.58898 -6.0385 2.2027
6.163 -3.88255 -0.381738
7.08919 -4.46776 1.93458
7.65267 -4.82474 -0.157909
5.85626 -3.69359 1.85521
2.51932 -1.59326 -0.798716
7.87828 -4.98429 0.162726
2.79107 -1.76649 -0.762584
7.90238 -5.0034 0.490179
3.17979 -2.01329 -0.731562
7.88224 -4.99258 0.816301
3.67594 -2.32922 -0.68925
7.86337 -4.98448 1.14313
4.23301 -2.68428 -0.61544
7.82816 -4.96599 1.46829
5.04725 -3.20185 -0.522934
9.39711 -5.96358 2.16339
6.14941 -3.90404 -0.381738
7.97501 -5.065 2.18113
7.60708 -4.83319 -0.157316
5.79116 -3.68085 1.83865
2.51048 -1.59997 -0.79768
7.77484 -4.95694 0.160946
2.78982 -1.77936 -0.763934
7.78471 -4.96514 0.483898
3.18598 -2.03282 -0.734615
7.74889 -4.9461 0.804273
3.68443 -2.35267 -0.692379
7.74555 -4.94777 1.12851
4.24703 -2.714 -0.618853
7.71178 -4.9281 1.44952
5.07297 -3.24305 -0.526769
8.60384 -5.50238 1.98518
6.14584 -3.93194 -0.382367
8.86331 -5.67269 2.42947
7.59438 -4.86055 -0.157386
8.49918 -5.44172 2.70414
2.50488 -1.60872 -0.79768
7.62544 -4.89732 0.158189
2.78718 -1.79071 -0.764834
7.67324 -4.93181 0.478037
3.16896 -2.03756 -0.732325
7.62768 -4.90629 0.793466
3.6168 -2.3264 -0.681116
7.63061 -4.91006 1.11413
4.22466 -2.71948 -0.616903
7.60817 -4.89937 1.43325
5.07502 -3.26937 -0.528164
8.59215 -5.53514 1.9867
6.16634 -3.97393 -0.38446
8.91324 -5.7464 2.44837
7.55888 -4.8751 -0.157002
8.2902 -5.34882 2.64358
2.49629 -1.61492 -0.796645
7.53947 -4.87937 0.156758
2.77928 -1.79937 -0.764384
7.54031 -4.88365 0.470814
3.1523 -2.04165 -0.730035
7.53111 -4.87956 0.785099
3.60866 -2.33902 -0.681116
7.51182 -4.87078 1.09926
4.2218 -2.73853 -0.617878
7.49491 -4.86353 1.41511
5.06749 -3.28835 -0.528512
8.66334 -5.62389 2.00769
6.15243 -3.99544 -0.38446
8.00251 -5.19888 2.20317
7.49487 -4.87095 -0.156025
8.26986 -5.37667 2.64306
2.5052 -1.63312 -0.801304
7.41854 -4.83793 0.154593
2.77951 -1.81332 -0.766183
7.42287 -4.84445 0.464534
3.16488 -2.06552 -0.734615
7.41894 -4.84373 0.775163
3.60047 -2.3516 -0.681116
7.4067 -4.83943 1.08634
4.21221 -2.75325 -0.617878
7.41175 -4.84642 1.40259
5.07266 -3.31693 -0.530255
8.7981 -5.75512 2.04356
6.09499 -3.98845 -0.381738
7.95986 -5.21077 2.19642
7.34901 -4.81272 -0.153337
7.45923 -4.88676 2.38942
2.49141 -1.63655 -0.798716
7.32139 -4.81108 0.152918
2.77805 -1.82622 -0.767533
7.32247 -4.81546 0.4593
3.15437 -2.0744 -0.733851
7.30711 -4.80718 0.765227
3.64174 -2.39673 -0.690502
7.28365 -4.79539 1.07074
4.20258 -2.76793 -0.617878
7.27273 -4.79184 1.37944
5.06105 -3.33461 -0.530255
9.07301 -5.98028 2.11226
6.08104 -4.0097 -0.381738
8.65087 -5.70636 2.39258
7.25706 -4.78878 -0.151766
7.7807 -5.13627 2.49812
2.47441 -1.63778 -0.795092
7.20118 -4.76816 0.150754
2.77328 -1.83699 -0.767983
7.21238 -4.77921 0.453439
3.14384 -2.08323 -0.733088
7.19065 -4.76661 0.754769
3.63335 -2.40943 -0.690502
7.1825 -4.76482 1.05831
4.21605 -2.79795 -0.62129
7.18684 -4.77131 1.3663
5.02946 -3.33904 -0.528164
12.8937 -8.56331 3.00868
6.11025 -4.05964 -0.38446
8.61791 -5.7279 2.38898
7.15038 -4.7543 -0.149881
7.53753 -5.01361 2.42565
2.48957 -1.66034 -0.801821
7.09965 -4.73667 0.148974
2.76685 -1.84666 -0.767983
7.12589 -4.75777 0.449043
3.13655 -2.09419 -0.733088
7.09444 -4.73856 0.746402
3.62492 -2.4221 -0.690502
7.08001 -4.7325 1.04564
4.18645 -2.79941 -0.618365
7.06506 -4.72607 1.34628
5.03706 -3.37074 -0.530255
8.73409 -5.84475 2.0428
6.09605 -4.08095 -0.38446
8.65292 -5.79481 2.40428
7.06064 -4.73026 -0.148345
7.47344 -5.0087 2.41064
2.48026 -1.6673 -0.800786
7.00839 -4.71122 0.147403
2.7523 -1.85087 -0.765733
6.98993 -4.70235 0.441506
3.14839 -2.11882 -0.737668
6.98447 -4.70222 0.73664
3.62913 -2.44419 -0.693005
6.96301 -4.68954 1.03077
4.21287 -2.83841 -0.623727
6.96989 -4.69771 1.33126
5.04839 -3.4039 -0.532696
8.69307 -5.86355 2.03822
6.08105 -4.10326 -0.38446
8.7463 -5.9039 2.43622
6.96122 -4.69894 -0.1466
8.90323 -6.01209 2.87859
2.47763 -1.67811 -0.801821
6.91327 -4.68416 0.145763
2.73905 -1.85657 -0.763934
6.8966 -4.67638 0.436691
3.12473 -2.11878 -0.733851
6.90041 -4.68072 0.729494
3.6173 -2.45463 -0.692379
6.8653 -4.6604 1.01883
4.16631 -2.8293 -0.618365
6.85785 -4.65884 1.31311
5.05625 -3.43494 -0.534788
8.55239 -5.8122 2.00998
6.06669 -4.12446 -0.38446
8.48071 -5.76781 2.36783
6.84805 -4.65918 -0.144576
8.01075 -5.45228 2.59647
2.47175 -1.68675 -0.801821
6.80604 -4.64625 0.143843
2.74221 -1.87271 -0.766633
6.77799 -4.63057 0.430202
3.12704 -2.13632 -0.736141
6.79027 -4.64069 0.719558
3.65437 -2.49846 -0.701139
6.78017 -4.63727 1.00859
4.18918 -2.86624 -0.62324
6.77635 -4.63812 1.3006
5.01793 -3.43456 -0.531999
6.7453 -4.6186 1.58906
6.05225 -4.14562 -0.38446
8.83187 -6.05183 2.47176
6.74268 -4.622 -0.142691
7.98211 -5.47365 2.59337
2.45152 -1.68552 -0.797163
6.70905 -4.61445 0.142132
2.74528 -1.8889 -0.769333
6.70914 -4.61796 0.426852
3.10339 -2.13609 -0.732325
6.69034 -4.60674 0.710668
3.62285 -2.49551 -0.696759
6.68875 -4.60909 0.997379
4.19222 -2.88986 -0.62519
6.67555 -4.60344 1.28433
4.98951 -3.44074 -0.530255
6.65964 -4.59418 1.57265
6.07062 -4.18941 -0.386553
8.65994 -5.97855 2.42947
6.67714 -4.61141 -0.141644
9.52375 -6.57981 3.10169
2.45992 -1.70396 -0.801821
6.61072 -4.58089 0.140387
2.73387 -1.89514 -0.767983
6.61748 -4.589 0.422037
3.12173 -2.16481 -0.738431
6.60055 -4.57896 0.702824
3.5914 -2.49237 -0.692379
6.58456 -4.57128 0.984217
4.18211 -2.90448 -0.62519
6.57833 -4.57036 1.26868
5.00037 -3.47406 -0.532696
6.56135 -4.56026 1.55319
6.06252 -4.21513 -0.386972
9.03417 -6.28359 2.5406
6.57893 -4.57759 -0.139898
9.48804 -6.60419 3.09755
2.45108 -1.7099 -0.800786
6.52826 -4.55587 0.138956
2.72278 -1.90085 -0.766633
6.52035 -4.55374 0.416804
3.10166 -2.16616 -0.735378
6.52 -4.55518 0.695851
3.55721 -2.48616 -0.687373
6.49128 -4.53849 0.972517
4.18872 -2.92971 -0.627627
6.49192 -4.54232 1.25492
4.98229 -3.48605 -0.531999
6.48025 -4.53583 1.53754
6.00924 -4.20772 -0.38446
9.10267 -6.37612 2.56579
6.49166 -4.54889 -0.138363
9.28101 -6.50588 3.03698
2.4451 -1.71845 -0.800786
6.42725 -4.51883 0.137141
2.72091 -1.9137 -0.767983
6.41948 -4.51671 0.411361
3.08123 -2.16794 -0.732325
6.43237 -4.52746 0.688182
3.61958 -2.5486 -0.701139
6.4121 -4.51654 0.963012
4.17847 -2.94431 -0.627627
6.41467 -4.5217 1.24303
4.96684 -3.50112 -0.53165
6.38415 -4.50185 1.51846
5.99452 -4.22867 -0.38446
9.00234 -6.3528 2.54375
6.40223 -4.51962 -0.136792
9.31347 -6.57724 3.0551
2.45012 -1.73478 -0.80441
6.36085 -4.5054 0.136059
2.72057 -1.9277 -0.769782
6.33928 -4.49178 0.407174
3.08646 -2.18776 -0.735378
6.35314 -4.50494 0.681384
3.5881 -2.54522 -0.696759
6.3283 -4.49065 0.952775
4.16868 -2.95815 -0.627627
6.29977 -4.47205 1.22363
4.98708 -3.54151 -0.535136
6.30278 -4.47749 1.50281
6.02856 -4.28428 -0.3876
8.29659 -5.89608 2.34984
6.32527 -4.4968 -0.135466
9.52461 -6.77379 3.13171
2.44593 -1.74402 -0.804927
6.27588 -4.47654 0.134558
2.71258 -1.93558 -0.769333
6.27395 -4.47682 0.403929
3.09836 -2.21167 -0.739957
6.26196 -4.47156 0.673191
3.60215 -2.57318 -0.701139
6.24878 -4.46544 0.943025
4.17823 -2.98581 -0.630552
6.23027 -4.45386 1.21299
4.97206 -3.55571 -0.534788
6.21764 -4.44811 1.48602
6.00458 -4.29727 -0.386972
9.2199 -6.59837 2.61753
6.24529 -4.47119 -0.134069
9.42827 -6.75247 3.10738
2.42758 -1.74311 -0.800786
6.20578 -4.45766 0.133371
2.69981 -1.94001 -0.767533
6.21288 -4.46605 0.400998
3.06869 -2.20589 -0.734615
6.19857 -4.45741 0.667962
3.57114 -2.56896 -0.696759
6.16143 -4.43396 0.932057
4.15812 -2.99342 -0.62909
6.15057 -4.42941 1.20048
4.98288 -3.58848 -0.537228
6.12161 -4.41018 1.46656
5.96761 -4.30081 -0.385507
8.69888 -6.27152 2.47581
6.16801 -4.44851 -0.132743
2.4387 -1.76403 -0.80648
6.13834 -4.44178 0.132254
2.69776 -1.95285 -0.768883
6.14063 -4.44671 0.397335
3.08324 -2.23271 -0.739957
6.12489 -4.43694 0.661686
3.57815 -2.59301 -0.699888
6.08002 -4.40767 0.922064
4.138 -3.00092 -0.627627
6.07111 -4.40445 1.18796
4.93162 -3.57777 -0.533045
6.06169 -4.39923 1.45587
5.95579 -4.32396 -0.385716
6.11362 -4.4418 -0.131905
8.61987 -6.265 2.85529
2.43253 -1.77253 -0.80648
6.06139 -4.41842 0.130928
2.68778 -1.95996 -0.767983
6.01535 -4.38808 0.390217
3.05322 -2.22726 -0.734615
6.03855 -4.40661 0.654017
3.55312 -2.59383 -0.696759
6.00688 -4.38672 0.913289
4.12109 -3.01066 -0.626652
5.98074 -4.37083 1.17326
4.94805 -3.61613 -0.536182
5.98132 -4.37286 1.44023
5.93099 -4.33765 -0.385088
8.55265 -6.2573 2.44657
6.01417 -4.4017 -0.13009
8.56054 -6.26766 2.84287
2.42944 -1.7833 -0.807515
5.97501 -4.38748 0.129392
2.69034 -1.97625 -0.770682
5.95171 -4.37357 0.387077
3.04543 -2.23791 -0.734615
5.96213 -4.38282 0.647393
3.58224 -2.63431 -0.704268
5.92757 -4.36061 0.903539
4.13614 -3.04386 -0.630552
5.90341 -4.34601 1.16106
4.94824 -3.64283 -0.537577
5.91543 -4.35645 1.42801
5.91903 -4.3607 -0.385297
8.42408 -6.2085 2.41597
5.93438 -4.3752 -0.128694
8.52306 -6.28604 2.83769
2.41388 -1.78487 -0.80441
5.90339 -4.36668 0.12817
2.68813 -1.98911 -0.772032
5.89467 -4.36342 0.384355
3.05969 -2.26488 -0.739957
5.87954 -4.35381 0.640072
3.5508 -2.63033 -0.699888
5.85968 -4.34227 0.895496
4.12549 -3.05827 -0.630552
5.8406 -4.33129 1.15167
4.9483 -3.66957 -0.538971
5.83081 -4.32561 1.41122
5.85245 -4.34324 -0.381948
8.31317 -6.17166 2.39033
5.85807 -4.35059 -0.127368
8.51967 -6.32958 2.8439
2.41228 -1.79675 -0.805963
5.81756 -4.33469 0.126635
2.67336 -1.99266 -0.769782
5.80415 -4.32786 0.379436
3.04232 -2.2685 -0.737668
5.80681 -4.33142 0.633797
3.52577 -2.6309 -0.696759
5.7904 -4.32232 0.887209
4.13387 -3.08691 -0.633477
5.76531 -4.30673 1.13978
4.93546 -3.68682 -0.538971
5.75749 -4.30245 1.3971
5.78446 -4.32418 -0.378494
8.31499 -6.21814 2.39708
5.79161 -4.33268 -0.126251
2.40754 -1.80632 -0.80648
5.75441 -4.31896 0.125588
2.67262 -2.00666 -0.771582
5.74589 -4.31571 0.37661
3.02182 -2.26967 -0.734615
5.7375 -4.31097 0.62787
3.53235 -2.65506 -0.699888
5.70388 -4.28883 0.876241
4.11038 -3.09177 -0.631527
5.69657 -4.28644 1.12914
4.92256 -3.70403 -0.538971
5.68126 -4.27648 1.38222
5.70392 -4.29509 -0.374202
8.34149 -6.28348 2.41103
5.71896 -4.30954 -0.124994
8.15132 -6.14469 2.7352
2.40739 -1.81937 -0.808551
5.68985 -4.30164 0.124505
2.66404 -2.0148 -0.771132
5.65912 -4.28151 0.371899
3.02328 -2.28732 -0.736904
5.67476 -4.2949 0.622641
3.58763 -2.71626 -0.712716
5.63349 -4.26676 0.86771
4.10589 -3.1109 -0.632502
5.63435 -4.27051 1.11976
4.94135 -3.74526 -0.542457
5.62093 -4.26188 1.37115
5.64911 -4.2848 -0.371585
8.58186 -6.51163 2.48706
5.64176 -4.28233 -0.123633
2.40871 -1.83361 -0.811139
5.61116 -4.27301 0.123109
2.66009 -2.02645 -0.772032
5.58854 -4.25887 0.368236
3.00591 -2.29072 -0.734615
5.59952 -4.26878 0.616017
3.57813 -2.72877 -0.712716
5.57595 -4.25389 0.861129
4.10763 -3.13485 -0.634452
5.5566 -4.2422 1.10724
4.89658 -3.7383 -0.538971
5.55609 -4.24335 1.35894
5.58016 -4.26327 -0.368026
5.52748 -4.22455 1.60615
5.57912 -4.26556 -0.122586
2.39463 -1.83613 -0.808551
5.54226 -4.25119 0.121923
2.66383 -2.04403 -0.775181
5.52769 -4.24308 0.3652
3.03215 -2.32749 -0.74301
5.5277 -4.24462 0.609742
3.52785 -2.70995 -0.704581
5.5044 -4.22979 0.852354
4.09037 -3.14433 -0.633477
5.48852 -4.22063 1.09661
4.90877 -3.7748 -0.54176
5.48212 -4.21723 1.34444
5.50351 -4.23521 -0.363944
5.47255 -4.21291 1.59445
5.53251 -4.2606 -0.121888
2.39738 -1.85157 -0.811657
5.46726 -4.22405 0.120596
2.65513 -2.05212 -0.774731
5.45122 -4.21471 0.361118
3.02401 -2.33806 -0.74301
5.47187 -4.23219 0.605209
3.55899 -2.75368 -0.712716
5.43623 -4.20766 0.844067
4.0982 -3.17317 -0.636402
5.43627 -4.21073 1.0891
4.9264 -3.81718 -0.545246
5.40684 -4.18944 1.32956
5.42555 -4.20546 -0.359757
5.40699 -4.19258 1.57961
5.4386 -4.21861 -0.120142
2.38448 -1.8556 -0.809586
5.39567 -4.1989 0.11934
2.65257 -2.06497 -0.776081
5.37975 -4.18953 0.35735
3.01542 -2.34913 -0.74301
5.39503 -4.20446 0.598411
3.50837 -2.73513 -0.704581
5.37298 -4.18878 0.836511
4.07145 -3.17525 -0.633964
5.36236 -4.18351 1.07721
4.9099 -3.8319 -0.544898
5.3574 -4.18265 1.32116
5.35816 -4.18474 -0.356303
5.33631 -4.16918 1.56341
5.3876 -4.20925 -0.11934
2.39319 -1.87582 -0.814762
5.34248 -4.18904 0.118502
2.64191 -2.07227 -0.775181
5.32424 -4.17623 0.354628
3.03191 -2.37903 -0.749116
5.34271 -4.19374 0.594228
3.5392 -2.77908 -0.712716
5.30451 -4.16675 0.828224
4.06971 -3.1968 -0.635427
5.29647 -4.16192 1.06688
4.88397 -3.83916 -0.543503
5.28567 -4.15642 1.30704
5.29956 -4.16885 -0.353372
5.26425 -4.14107 1.54631
5.3163 -4.18351 -0.118083
2.37482 -1.87418 -0.810621
5.28775 -4.17451 0.117594
2.63197 -2.0786 -0.774282
5.27117 -4.16292 0.352012
2.99936 -2.3696 -0.74301
5.28344 -4.17561 0.589173
3.47418 -2.74669 -0.701452
5.24863 -4.15107 0.821643
4.06531 -3.2152 -0.636402
5.22842 -4.13657 1.05593
4.8962 -3.87512 -0.546292
5.23645 -4.1459 1.29826
5.245 -4.15416 -0.350651
5.21077 -4.12705 1.53462
5.25224 -4.16138 -0.116966
30.5824 -24.2393 10.4563
2.35952 -1.87483 -0.807515
5.21126 -4.14225 0.116198
2.63421 -2.0946 -0.776981
5.20346 -4.13902 0.348453
3.01607 -2.39909 -0.749116
5.21032 -4.14596 0.582549
3.52069 -2.80249 -0.712716
5.20067 -4.14125 0.816281
4.05406 -3.22937 -0.636402
5.17687 -4.12525 1.04842
4.87398 -3.88389 -0.545246
5.16434 -4.11674 1.28376
5.1781 -4.12919 -0.347092
5.14301 -4.10268 1.51887
5.18923 -4.14102 -0.115884
30.3768 -24.2495 10.4149
2.36804 -1.89513 -0.812692
5.15462 -4.12667 0.115256
2.63297 -2.10865 -0.778781
5.14378 -4.12095 0.345417
2.99542 -2.39978 -0.746063
5.15229 -4.12924 0.577668
3.51088 -2.81476 -0.712716
5.13353 -4.11715 0.807994
4.04896 -3.24847 -0.637377
5.10698 -4.09878 1.03716
4.86971 -3.90836 -0.546292
5.09942 -4.09418 1.27117
5.12317 -4.11472 -0.344371
5.08765 -4.08765 1.50672
5.13266 -4.12529 -0.114942
30.3673 -24.4159 10.4408
2.35841 -1.90096 -0.811657
5.09193 -4.10573 0.114174
2.62104 -2.11416 -0.777431
5.08274 -4.10125 0.342277
3.00494 -2.42554 -0.750643
5.09443 -4.11216 0.572788
3.46108 -2.79473 -0.704581
5.06045 -4.08764 0.798732
4.04686 -3.27007 -0.638839
5.04962 -4.08181 1.0284
4.85226 -3.92368 -0.545944
5.04317 -4.0795 1.26087
5.05216 -4.08824 -0.340602
5.03244 -4.07228 1.49457
5.08403 -4.1155 -0.114174
2.37242 -1.92664 -0.818903
5.03028 -4.08654 0.113127
2.60874 -2.12007 -0.776081
5.01188 -4.0745 0.338509
2.98993 -2.43159 -0.749116
5.04532 -4.10315 0.568953
3.49065 -2.83981 -0.712716
5.0054 -4.07358 0.792395
4.02561 -3.27736 -0.637377
4.98868 -4.06287 1.01901
4.84711 -3.94898 -0.546989
4.99318 -4.06943 1.25209
4.99071 -4.06887 -0.337462
4.97217 -4.05376 1.48108
5.00383 -4.08102 -0.112708
2.35637 -1.92798 -0.815798
4.98741 -4.08215 0.112498
2.60698 -2.13455 -0.777881
4.95674 -4.05993 0.335788
3.01745 -2.47239 -0.758275
4.97477 -4.07615 0.562677
3.48022 -2.85259 -0.712716
4.94439 -4.05414 0.785082
4.02278 -3.29965 -0.638839
4.92794 -4.04354 1.00963
4.82953 -3.9642 -0.546641
4.93119 -4.04909 1.24026
4.9418 -4.05924 -0.33516
4.90156 -4.02619 1.46443
4.94403 -4.06252 -0.111695
2.34332 -1.93169 -0.813727
4.92305 -4.05969 0.111381
2.60816 -2.15153 -0.78058
4.91102 -4.05265 0.333694
2.98111 -2.46094 -0.751406
4.9137 -4.05631 0.557448
3.46974 -2.86532 -0.712716
4.8897 -4.03937 0.778745
4.03208 -3.33207 -0.642251
4.87046 -4.02633 1.00087
4.81804 -3.98441 -0.546989
4.86942 -4.02834 1.22843
4.90227 -4.05695 -0.333485
4.85224 -4.01555 1.45408
4.8983 -4.05511 -0.110997
7.64618 -6.33221 2.66014
2.35245 -1.95096 -0.818903
4.85866 -4.03087 0.110194
2.59577 -2.15428 -0.778781
4.86824 -4.04169 0.331601
2.98631 -2.47928 -0.754459
4.85566 -4.03268 0.552219
3.46122 -2.87561 -0.712716
4.84106 -4.02341 0.772895
4.03134 -3.35164 -0.643714
4.83115 -4.01803 0.995236
4.80619 -3.99869 -0.546989
4.80986 -4.00174 1.21622
4.82952 -4.01952 -0.329298
4.80586 -4.00125 1.44374
4.84323 -4.03379 -0.11002
7.62735 -6.35487 2.66014
2.33936 -1.95462 -0.816833
4.80619 -4.01575 0.109322
2.58823 -2.16333 -0.778781
4.80507 -4.01766 0.328251
2.97118 -2.48517 -0.752932
4.80418 -4.01976 0.548035
3.45066 -2.88827 -0.712716
4.78436 -4.0046 0.766071
4.01048 -3.35804 -0.642251
4.76864 -3.99428 0.985224
4.7693 -3.99625 -0.544375
4.76206 -3.9916 1.20782
4.76578 -3.99613 -0.325948
4.74637 -3.98127 1.43024
4.78928 -4.01726 -0.109112
2.33695 -1.9665 -0.818386
4.76238 -4.00887 0.108659
2.58327 -2.17531 -0.77968
4.72379 -3.9778 0.323646
2.93546 -2.47276 -0.746063
4.75355 -4.0057 0.543852
3.4617 -2.91812 -0.717096
4.72716 -3.98628 0.759246
3.9769 -3.3548 -0.638839
4.70635 -3.97014 0.975213
4.74009 -4.00002 -0.542632
4.71509 -3.98033 1.19943
4.71976 -3.98568 -0.32375
4.68779 -3.96009 1.41674
4.73246 -3.99782 -0.108135
7.89709 -6.67356 2.7704
2.3286 -1.9734 -0.817868
4.70329 -3.98586 0.107612
2.57158 -2.18009 -0.778331
4.68855 -3.97618 0.32218
2.96574 -2.51602 -0.755985
4.70308 -3.99132 0.539668
3.47008 -2.94493 -0.72085
4.67154 -3.96596 0.752421
3.98089 -3.38082 -0.641277
4.66235 -3.96096 0.968955
4.67145 -3.97009 -0.536356
4.66297 -3.96289 1.1895
4.65326 -3.95603 -0.320087
4.639 -3.94531 1.40594
4.67583 -3.97803 -0.107158
7.92083 -6.74115 2.78696
2.32498 -1.98362 -0.818903
4.64372 -3.96331 0.106564
2.58915 -2.21056 -0.785979
4.62604 -3.95102 0.318831
2.98126 -2.54624 -0.762091
4.64134 -3.96548 0.53409
3.42074 -2.92365 -0.712716
4.62448 -3.95386 0.747059
3.97811 -3.40244 -0.642739
4.60647 -3.94126 0.960195
4.62426 -3.95787 -0.532522
4.61033 -3.94595 1.17958
4.60604 -3.94367 -0.317784
4.58968 -3.93105 1.39515
4.62395 -3.9618 -0.106285
4.57055 -3.91743 1.61296
2.3177 -1.99213 -0.818903
4.58436 -3.94039 0.105517
2.56221 -2.20307 -0.78013
4.58497 -3.9437 0.316947
2.9481 -2.53666 -0.755985
4.59356 -3.95387 0.530255
3.41 -2.93617 -0.712716
4.56852 -3.93371 0.740234
3.97825 -3.42667 -0.644689
4.55976 -3.92894 0.953312
4.57118 -3.94017 -0.527989
4.55272 -3.92564 1.16851
4.55829 -3.93183 -0.315481
4.54278 -3.91984 1.38525
4.57678 -3.94918 -0.105517
4.51005 -3.89297 1.5964
2.32241 -2.01032 -0.823045
4.54267 -3.9336 0.104889
2.55854 -2.21627 -0.78148
4.53193 -3.92568 0.314225
2.98077 -2.58293 -0.766671
4.54661 -3.94117 0.526421
3.39973 -2.94805 -0.712716
4.50909 -3.91141 0.732922
3.99325 -3.46395 -0.649076
4.50425 -3.90859 0.944551
4.51527 -3.91953 -0.523109
4.50193 -3.90933 1.15897
4.51287 -3.92021 -0.313283
4.49004 -3.90038 1.3731
4.52976 -3.93628 -0.104749
4.47602 -3.89094 1.58915
2.31865 -2.02055 -0.82408
4.48438 -3.90922 0.103842
2.55558 -2.22859 -0.78283
4.48577 -3.9118 0.311922
2.93076 -2.55667 -0.755985
4.49148 -3.91955 0.52154
3.41077 -2.9775 -0.717096
4.47217 -3.90545 0.729023
3.97277 -3.46933 -0.647614
4.46746 -3.90271 0.939546
4.48124 -3.91613 -0.520668
4.45495 -3.89452 1.1502
4.46075 -3.90097 -0.310562
4.43894 -3.88189 1.3614
4.48056 -3.91968 -0.103912
4.4282 -3.87523 1.57673
2.30467 -2.02186 -0.821492
4.45336 -3.90824 0.103423
2.54378 -2.23319 -0.78148
4.43607 -3.89581 0.30941
2.90457 -2.55083 -0.751406
4.44253 -3.90286 0.517356
3.3801 -2.97054 -0.712716
4.42043 -3.88618 0.722685
3.96064 -3.48318 -0.647614
4.39745 -3.8687 0.927656
4.43233 -3.89938 -0.516485
4.41548 -3.88592 1.14333
4.39982 -3.87351 -0.307212
4.39611 -3.87161 1.35241
4.42184 -3.89564 -0.102864
4.38856 -3.86768 1.56741
2.28892 -2.02221 -0.818386
4.38575 -3.87609 0.102166
2.55057 -2.25497 -0.785979
4.36858 -3.86364 0.305642
2.90153 -2.56615 -0.752932
4.39158 -3.88534 0.512999
3.39042 -3.00065 -0.717096
4.37414 -3.87264 0.717323
3.96926 -3.51541 -0.651026
4.34843 -3.85258 0.920148
4.37395 -3.87519 -0.511256
4.35928 -3.86355 1.13226
4.35639 -3.86234 -0.305119
4.34467 -3.85331 1.34071
4.36633 -3.87389 -0.101887
4.32735 -3.84065 1.55033
2.2905 -2.0379 -0.821492
4.33336 -3.85681 0.101259
2.53395 -2.25608 -0.78328
4.32822 -3.85495 0.303758
2.91601 -2.59716 -0.759038
4.3408 -3.86751 0.508641
3.35928 -2.99406 -0.712716
4.32207 -3.85353 0.710986
3.96289 -3.53453 -0.652001
4.30106 -3.83749 0.912952
4.32472 -3.8586 -0.507072
4.30475 -3.84214 1.12158
4.325 -3.86157 -0.303863
4.30357 -3.84379 1.33216
4.32893 -3.86779 -0.101329
4.27935 -3.82484 1.5379
2.29057 -2.05233 -0.82408
4.30795 -3.86124 0.10098
2.51445 -2.2545 -0.77968
4.30285 -3.85937 0.302921
2.90108 -2.60208 -0.757512
4.30058 -3.85869 0.505503
3.34881 -3.00577 -0.712716
4.27906 -3.84207 0.706111
3.94462 -3.54304 -0.651026
4.25972 -3.8274 0.907007
4.28455 -3.84971 -0.503935
4.25919 -3.82827 1.11318
4.26694 -3.83658 -0.300722
4.24956 -3.82229 1.31956
4.28269 -3.85345 -0.100561
4.22864 -3.80615 1.52444
2.292 -2.06807 -0.827186
4.2514 -3.83739 0.0999674
2.52248 -2.27763 -0.784629
4.24636 -3.83554 0.299885
2.90072 -2.62008 -0.759801
4.26047 -3.84963 0.502366
3.36761 -3.04393 -0.718973
4.22733 -3.82237 0.699774
3.94106 -3.56477 -0.652489
4.21996 -3.81839 0.901375
4.23563 -3.83256 -0.499751
4.22252 -3.82203 1.10707
4.22095 -3.82196 -0.29842
4.19864 -3.80309 1.30787
4.23662 -3.83884 -0.0997929
4.19243 -3.80013 1.51616
2.2819 -2.07346 -0.82615
4.20395 -3.82127 0.0991646
2.51019 -2.28249 -0.78328
4.18124 -3.8033 0.296222
2.90027 -2.63812 -0.762091
4.20575 -3.82694 0.497485
3.37157 -3.06897 -0.722102
4.18461 -3.81037 0.694899
3.94034 -3.5892 -0.654438
4.17157 -3.80116 0.893867
4.19571 -3.82316 -0.496613
4.18158 -3.81162 1.09982
4.17806 -3.80975 -0.296326
4.15799 -3.79277 1.29932
4.18478 -3.81855 -0.0988853
4.1506 -3.78869 1.50581
2.26753 -2.0749 -0.823562
4.15961 -3.80757 0.0984316
2.51657 -2.3044 -0.787779
4.14585 -3.79764 0.294651
2.89973 -2.65618 -0.764381
4.15564 -3.80794 0.493127
3.35501 -3.07538 -0.72085
4.14495 -3.80081 0.690512
3.92486 -3.60025 -0.653951
4.12625 -3.78632 0.886984
4.14124 -3.80007 -0.491733
4.13354 -3.79433 1.09066
4.14415 -3.8054 -0.294861
4.11889 -3.78353 1.29122
4.13609 -3.80067 -0.0980476
4.10322 -3.77178 1.49339
2.26879 -2.09065 -0.826668
4.11541 -3.79361 0.0976986
2.49419 -2.29996 -0.78328
4.11788 -3.79854 0.293605
2.90487 -2.6796 -0.768197
4.10865 -3.79135 0.489118
3.30652 -3.05223 -0.712716
4.10249 -3.78832 0.685637
3.94143 -3.64087 -0.658826
4.0956 -3.78461 0.883229
4.10454 -3.79287 -0.488944
4.08855 -3.77942 1.08227
4.10151 -3.79272 -0.292767
4.07132 -3.76613 1.28042
4.09785 -3.79199 -0.0974542
4.056 -3.75458 1.48096
2.25865 -2.09593 -0.825633
4.06111 -3.76985 0.0967212
2.489 -2.3113 -0.784179
4.06655 -3.77755 0.290883
2.90126 -2.69507 -0.769724
4.07495 -3.78668 0.486678
3.32478 -3.09066 -0.718973
