2.756480 0.918563 -0.778528
6.124300 2.039660 0.112673
3.058250 1.017940 -0.744138
6.108070 2.031890 0.337358
3.427910 1.139650 -0.702177
6.131350 2.038440 0.565292
3.959170 1.315500 -0.660779
6.152930 2.043230 0.796051
4.546200 1.508790 -0.588142
6.132900 2.034200 1.023390
5.420150 1.796740 -0.499577
6.164920 2.042440 1.262390
6.167780 2.042190 -0.340498
6.151150 2.036680 1.495920
6.160480 2.038580 -0.113266
2.769010 0.911475 -0.781116
6.183020 2.034070 0.113615
3.065670 1.007940 -0.745038
6.195170 2.035670 0.341754
3.448850 1.132590 -0.705612
6.199350 2.035840 0.570870
3.930180 1.289900 -0.655148
6.224510 2.041700 0.804338
4.557360 1.493980 -0.588873
6.200380 2.031390 1.033410
5.388820 1.764460 -0.496091
6.232080 2.039360 1.274600
6.232180 2.038200 -0.343638
6.230810 2.037750 1.513470
6.240140 2.039590 -0.114593
2.761310 0.897735 -0.778010
6.251290 2.031170 0.114732
3.074900 0.998504 -0.746388
6.267180 2.033910 0.345313
3.432430 1.113280 -0.701414
6.259840 2.030320 0.575751
3.923600 1.271830 -0.653270
6.292380 2.038450 0.812137
4.568470 1.479100 -0.589604
6.279210 2.031760 1.045300
5.399050 1.745930 -0.496439
6.299290 2.035830 1.286820
6.306130 2.036820 -0.347301
6.308700 2.037660 1.530570
6.295140 2.032060 -0.115465
2.760900 0.886428 -0.776975
6.313910 2.025960 0.115744
3.063700 0.982466 -0.742788
6.354480 2.036530 0.349709
3.447710 1.104280 -0.703704
6.337440 2.029850 0.582200
3.932000 1.258640 -0.653896
6.364090 2.035940 0.820424
4.573860 1.462340 -0.589604
6.361880 2.032780 1.057810
5.384530 1.719460 -0.494522
6.374040 2.034220 1.300550
6.374440 2.033120 -0.350651
6.388540 2.037620 1.548110
6.374950 2.032050 -0.116792
2.774870 0.880775 -0.780081
6.385410 2.025570 0.116931
3.065080 0.971711 -0.742338
6.423670 2.036470 0.353163
3.449290 1.092860 -0.703322
6.422010 2.033480 0.589347
3.962520 1.253940 -0.658276
6.431380 2.033980 0.828224
4.567320 1.443580 -0.588142
6.419090 2.028860 1.066260
5.389910 1.702530 -0.494522
6.453410 2.037230 1.315440
6.451270 2.035320 -0.354524
6.410130 2.021110 1.551710
6.449960 2.033660 -0.118048
2.766870 0.867615 -0.776975
6.491310 2.035500 0.118746
3.079440 0.965039 -0.745038
6.486010 2.031350 0.356199
3.421230 1.070840 -0.696835
6.497530 2.032470 0.595622
3.944030 1.233720 -0.654522
4.568300 1.427240 -0.587654
6.499670 2.029400 1.078460
5.380600 1.678960 -0.493127
6.511370 2.030560 -0.357455
6.442840 2.007950 1.558010
2.766040 0.857290 -0.775940
3.080930 0.953708 -0.744588
3.432270 1.061810 -0.698361
3.974740 1.228110 -0.658902
4.565660 1.408940 -0.586679
5.386140 1.661110 -0.493127
2.776400 0.849893 -0.778010
3.080510 0.941808 -0.743688
3.439710 1.050970 -0.699124
3.944990 1.203850 -0.653270
4.581950 1.396470 -0.588142
5.409060 1.647520 -0.494696
2.773810 0.838519 -0.776457
3.078190 0.929360 -0.742338
3.465910 1.045760 -0.703704
3.945390 1.188930 -0.652645
4.558040 1.372680 -0.584485
5.422410 1.630930 -0.495393
6.513150 1.956520 -0.356408
2.778420 0.829868 -0.776975
3.075650 0.917477 -0.740989
3.444900 1.026970 -0.698743
3.972030 1.182610 -0.656399
4.564470 1.358130 -0.584729
5.427790 1.612940 -0.495393
2.790420 0.823384 -0.779563
3.091760 0.911127 -0.744138
3.478420 1.024410 -0.704848
3.975930 1.169430 -0.656399
4.592040 1.348900 -0.587654
5.444580 1.598300 -0.496439
2.782150 0.810398 -0.776457
3.094920 0.900329 -0.744138
3.474430 1.010080 -0.703322
3.972400 1.153340 -0.655148
4.573840 1.326230 -0.584729
5.430990 1.573740 -0.494696
2.781250 0.799613 -0.775422
3.096170 0.888983 -0.743688
3.455290 0.991442 -0.698743
3.976400 1.139460 -0.655148
4.597530 1.315720 -0.587167
5.436450 1.554770 -0.494696
2.791460 0.792008 -0.777492
3.076760 0.871795 -0.738289
3.477620 0.984723 -0.702559
3.980350 1.125580 -0.655148
4.588720 1.295880 -0.585460
5.434170 1.533620 -0.493999
6.507210 1.834000 -0.354314
2.779320 0.778093 -0.773351
3.092920 0.864722 -0.741439
3.473470 0.970465 -0.701032
3.976650 1.109550 -0.653896
4.579830 1.276130 -0.583754
5.447170 1.516780 -0.494696
6.494330 1.805920 -0.353268
2.793200 0.771473 -0.776457
3.079010 0.849258 -0.737390
3.473060 0.957292 -0.700269
3.976690 1.094620 -0.653270
4.591910 1.262240 -0.584729
5.437060 1.493530 -0.493302
6.469780 1.774790 -0.351593
2.775370 0.756133 -0.770763
3.097000 0.842597 -0.740989
3.465010 0.942073 -0.697979
3.976670 1.079690 -0.652645
4.590540 1.244640 -0.583998
5.434550 1.472460 -0.492604
6.487500 1.755320 -0.352221
2.781720 0.747443 -0.771798
3.107450 0.833802 -0.742788
3.479650 0.933022 -0.700269
4.003310 1.071940 -0.656399
4.600610 1.230150 -0.584729
5.470450 1.461710 -0.495393
6.462710 1.724430 -0.350546
2.797390 0.741191 -0.775422
3.095270 0.818962 -0.739189
3.471500 0.917858 -0.697979
3.995570 1.054930 -0.654522
4.593360 1.211050 -0.583267
5.436990 1.432450 -0.491907
6.457100 1.698810 -0.349918
2.799960 0.731422 -0.775422
3.096080 0.808201 -0.738739
3.489880 0.909697 -0.701032
4.002870 1.042670 -0.655148
4.606960 1.198310 -0.584485
5.449670 1.415470 -0.492604
6.462700 1.677390 -0.349918
2.789270 0.718759 -0.771798
3.115870 0.801759 -0.742788
3.492880 0.898120 -0.701032
3.995010 1.025740 -0.653270
4.620730 1.184680 -0.585704
5.443000 1.393480 -0.491558
6.433690 1.645910 -0.348034
2.791890 0.708532 -0.771798
3.124320 0.792315 -0.744138
3.515180 0.890132 -0.704848
3.979590 1.006250 -0.650142
4.615210 1.166110 -0.584485
5.447830 1.374470 -0.491558
6.470670 1.630120 -0.349709
2.792470 0.698313 -0.771281
3.106400 0.775666 -0.739189
3.506840 0.875004 -0.702559
3.983080 0.992355 -0.650142
4.623310 1.150150 -0.584973
5.452590 1.355440 -0.491558
6.445300 1.599830 -0.348034
2.800520 0.689947 -0.772834
3.112740 0.766293 -0.740089
3.521310 0.865568 -0.704848
4.001690 0.982910 -0.652645
4.617460 1.132450 -0.583754
5.461160 1.337350 -0.491907
6.458330 1.580340 -0.348453
2.810300 0.682479 -0.774904
3.105930 0.753126 -0.737839
3.497450 0.847413 -0.699506
3.989740 0.965220 -0.650142
4.611730 1.113990 -0.582536
5.453940 1.316430 -0.490861
6.459930 1.556860 -0.348243
2.801390 0.669971 -0.771798
3.116120 0.744089 -0.739639
3.500380 0.835200 -0.699506
4.016140 0.956780 -0.653896
4.619460 1.098810 -0.583023
5.470140 1.300140 -0.491907
6.502240 1.543060 -0.350232
2.799950 0.659302 -0.770763
3.114910 0.732316 -0.738739
3.480340 0.817590 -0.694926
4.019460 0.942756 -0.653896
4.603940 1.078150 -0.580586
5.443600 1.273780 -0.489118
2.798470 0.648652 -0.769728
3.117440 0.721438 -0.738739
3.509950 0.811629 -0.700269
4.030420 0.930496 -0.655148
4.619280 1.064750 -0.582048
5.467430 1.259240 -0.490861
2.804490 0.639738 -0.770763
3.110440 0.708388 -0.736490
3.518510 0.800678 -0.701414
4.033650 0.916423 -0.655148
4.617160 1.047300 -0.581317
5.471790 1.240150 -0.490861
2.801050 0.628675 -0.769210
3.126210 0.700508 -0.739639
3.515540 0.787104 -0.700269
4.029110 0.900612 -0.653896
4.634350 1.034200 -0.583023
5.456640 1.216700 -0.489118
2.801340 0.618478 -0.768693
3.128630 0.689592 -0.739639
3.487580 0.768072 -0.694163
4.009080 0.881453 -0.650142
4.603030 1.010360 -0.578636
5.468640 1.199360 -0.489815
6.514530 1.426350 -0.349500
2.799700 0.607875 -0.767657
3.127210 0.677842 -0.738739
3.536300 0.765866 -0.703322
4.035300 0.872464 -0.653896
4.633690 1.000150 -0.582048
5.480580 1.181940 -0.490513
2.801810 0.598100 -0.767657
3.131460 0.667327 -0.739189
3.531270 0.751884 -0.701796
4.046050 0.860014 -0.655148
4.644750 0.986428 -0.583023
5.480780 1.161980 -0.490164
2.818900 0.591981 -0.771798
3.124120 0.654939 -0.736940
3.514520 0.736144 -0.697979
4.017940 0.840123 -0.650142
4.620790 0.965335 -0.579611
5.472900 1.141350 -0.489118
2.820850 0.582631 -0.771798
3.124370 0.644183 -0.736490
3.515020 0.724090 -0.697598
4.020700 0.826795 -0.650142
4.614410 0.947203 -0.578392
5.476650 1.123200 -0.489118
2.815290 0.571243 -0.769728
3.126600 0.633274 -0.736490
3.509830 0.710257 -0.696071
4.023570 0.812756 -0.650142
4.639090 0.935404 -0.581073
5.492260 1.106440 -0.490164
2.804010 0.558770 -0.766104
3.138350 0.624256 -0.738739
3.527700 0.701064 -0.699124
4.026380 0.798705 -0.650142
4.657910 0.922293 -0.583023
5.484360 1.084940 -0.489118
2.819210 0.551575 -0.769728
3.138590 0.612924 -0.738289
3.526270 0.687992 -0.698361
4.029140 0.784646 -0.650142
4.633820 0.900724 -0.579611
5.511580 1.070350 -0.491210
2.809740 0.539544 -0.766622
3.115830 0.597197 -0.732441
3.524790 0.674940 -0.697598
4.008570 0.766128 -0.646387
4.638890 0.884917 -0.579854
5.491800 1.046620 -0.489118
2.819200 0.531164 -0.768693
3.131310 0.588837 -0.735590
3.530980 0.663358 -0.698361
4.034520 0.756498 -0.650142
4.634140 0.867257 -0.578879
5.526760 1.033310 -0.491907
2.817240 0.520619 -0.767657
3.131430 0.577550 -0.735140
3.519760 0.648539 -0.695690
4.037140 0.742411 -0.650142
4.637140 0.851074 -0.578879
5.491140 1.006820 -0.488421
2.809530 0.509060 -0.765069
3.148760 0.569389 -0.738739
3.545190 0.640437 -0.700269
4.020260 0.724809 -0.647013
4.651810 0.836992 -0.580342
5.475010 0.984123 -0.486678
2.818900 0.500600 -0.767140
3.135380 0.555675 -0.735140
3.512610 0.621897 -0.693400
4.042220 0.714209 -0.650142
4.650790 0.820059 -0.579854
5.537270 0.975376 -0.491907
2.832050 0.492744 -0.770245
3.137210 0.545275 -0.735140
3.541840 0.614328 -0.698743
4.005640 0.694056 -0.643884
4.633920 0.801250 -0.577417
5.497450 0.948587 -0.488072
2.820340 0.481075 -0.766622
3.142930 0.534974 -0.736040
3.539980 0.601920 -0.697979
4.046990 0.686678 -0.650142
4.636690 0.785071 -0.577417
5.504500 0.931017 -0.488421
2.814380 0.469956 -0.764552
3.139020 0.523040 -0.734690
3.524630 0.586661 -0.694545
4.018180 0.667367 -0.645136
4.651150 0.770827 -0.578879
5.488060 0.908541 -0.486678
2.825530 0.461686 -0.767140
3.146590 0.513019 -0.736040
3.528600 0.574669 -0.694926
4.051690 0.658408 -0.650142
4.653810 0.754590 -0.578879
5.506930 0.891929 -0.488072
2.823310 0.451211 -0.766104
3.144520 0.501418 -0.735140
3.532520 0.562658 -0.695308
4.053960 0.644260 -0.650142
4.656420 0.738339 -0.578879
5.494260 0.870205 -0.486678
2.830600 0.442247 -0.767657
3.142390 0.489840 -0.734240
3.551920 0.553041 -0.698743
4.056180 0.630105 -0.650142
4.657010 0.721776 -0.578636
5.485460 0.849194 -0.485632
6.511750 1.005750 -0.345313
2.839760 0.433529 -0.769728
3.140230 0.478281 -0.733340
3.553830 0.540638 -0.698743
4.058360 0.615944 -0.650142
4.661460 0.705813 -0.578879
5.535670 0.837193 -0.489815
2.825970 0.421336 -0.765587
3.153450 0.469037 -0.736040
3.534330 0.525057 -0.694545
4.060480 0.601773 -0.650142
4.644260 0.686633 -0.576442
5.491250 0.810878 -0.485632
2.835070 0.412582 -0.767657
3.147350 0.456906 -0.734240
3.524490 0.511027 -0.692255
4.062560 0.587596 -0.650142
4.674140 0.674387 -0.579854
5.494050 0.791706 -0.485632
2.823110 0.400783 -0.764034
3.156650 0.447009 -0.736040
3.549580 0.502021 -0.696835
4.064590 0.573411 -0.650142
4.668600 0.656959 -0.578879
5.480990 0.770303 -0.484237
2.835970 0.392515 -0.767140
3.142740 0.433856 -0.732441
3.557140 0.490431 -0.697979
4.066560 0.559220 -0.650142
4.635460 0.635804 -0.574492
5.495490 0.752790 -0.485283
2.833490 0.382096 -0.766104
3.142310 0.422623 -0.731991
3.533540 0.474613 -0.693018
4.068490 0.545020 -0.650142
4.651430 0.621461 -0.576198
5.513890 0.735709 -0.486678
2.842470 0.373209 -0.768175
3.145620 0.412454 -0.732441
3.531280 0.461768 -0.692255
4.070270 0.531527 -0.650142
4.669210 0.608082 -0.578148
5.536180 0.719022 -0.488421
2.851360 0.364762 -0.770245
3.152840 0.402212 -0.733790
3.536690 0.450552 -0.693018
4.072100 0.517316 -0.650142
4.663430 0.590781 -0.577173
5.518770 0.698163 -0.486678
2.852610 0.354806 -0.770245
3.154230 0.391203 -0.733790
3.528500 0.436996 -0.691110
4.050360 0.500192 -0.646387
4.657580 0.573532 -0.576198
5.536990 0.680838 -0.488072
2.836570 0.342762 -0.765587
3.145900 0.379024 -0.731541
3.539750 0.425850 -0.693018
4.052080 0.486050 -0.646387
4.667440 0.558212 -0.577173
5.523510 0.659615 -0.486678
2.851180 0.334433 -0.769210
3.141400 0.367363 -0.730191
3.545110 0.413946 -0.693782
4.077300 0.474646 -0.650142
4.649640 0.539626 -0.574736
5.541610 0.642169 -0.488072
2.846580 0.323824 -0.767657
3.152340 0.357493 -0.732441
3.546530 0.401569 -0.693782
4.078930 0.460410 -0.650142
4.679110 0.526501 -0.578148
5.516100 0.619705 -0.485632
6.496420 0.727543 -0.342591
2.838090 0.312827 -0.765069
3.153570 0.346488 -0.732441
3.544010 0.388760 -0.693018
4.111930 0.449605 -0.655148
4.665130 0.508443 -0.576198
5.490500 0.597431 -0.483191
2.860290 0.305173 -0.770763
3.152820 0.335270 -0.731991
3.557060 0.377629 -0.695308
4.082050 0.431922 -0.650142
4.674780 0.492989 -0.577173
5.548130 0.583133 -0.488072
2.851780 0.293698 -0.768175
3.152040 0.324063 -0.731541
3.546700 0.363389 -0.693018
4.083600 0.416959 -0.650142
4.660670 0.475057 -0.575223
5.550130 0.563764 -0.488072
2.841260 0.282594 -0.765069
3.164840 0.313662 -0.734240
3.540130 0.350233 -0.691492
4.085030 0.402701 -0.650142
4.646570 0.456420 -0.573273
5.520340 0.541275 -0.485283
6.506050 0.635632 -0.342591
2.863380 0.274704 -0.770763
3.171680 0.303722 -0.735590
3.551110 0.338806 -0.693400
4.086350 0.389151 -0.650142
4.657940 0.441947 -0.574492
5.490460 0.519000 -0.482494
6.508120 0.614055 -0.342591
2.837340 0.262713 -0.763516
3.166900 0.292114 -0.734240
3.554170 0.327208 -0.693782
4.087680 0.374888 -0.650142
4.663410 0.426045 -0.574980
5.539770 0.505136 -0.486678
6.510230 0.591332 -0.342591
2.844020 0.253321 -0.765069
3.162080 0.280540 -0.732891
3.551380 0.314452 -0.693018
4.088960 0.360615 -0.650142
4.690580 0.412024 -0.578148
5.489890 0.481271 -0.482146
6.512250 0.568605 -0.342591
2.841030 0.243064 -0.764034
3.155270 0.268838 -0.731091
3.556360 0.302389 -0.693782
4.066580 0.344339 -0.646387
4.656380 0.392644 -0.573761
5.483600 0.461435 -0.481448
6.514200 0.545868 -0.342591
2.857270 0.234409 -0.768175
3.152260 0.258057 -0.730191
3.557400 0.289972 -0.693782
4.091320 0.332772 -0.650142
4.667550 0.378003 -0.574980
5.505040 0.443893 -0.483191
2.846480 0.224022 -0.765069
3.160910 0.247660 -0.731991
3.542680 0.276948 -0.690729
4.092460 0.318492 -0.650142
4.670820 0.361862 -0.575223
5.502510 0.425329 -0.482843
2.839530 0.213507 -0.762999
3.157870 0.236333 -0.731091
3.551460 0.265168 -0.692255
4.093550 0.304203 -0.650142
4.672060 0.345555 -0.575223
5.488060 0.404945 -0.481448
2.846040 0.204008 -0.764552
3.150900 0.224755 -0.729291
3.566070 0.253743 -0.694926
4.070940 0.288239 -0.646387
4.698980 0.331056 -0.578392
5.509320 0.387183 -0.483191
2.856370 0.194728 -0.767140
3.151670 0.213754 -0.729291
3.557140 0.240631 -0.693018
4.095570 0.275618 -0.650142
4.660490 0.312001 -0.573517
5.498710 0.367152 -0.482146
2.849330 0.184258 -0.765069
3.152390 0.202752 -0.729291
3.542280 0.227208 -0.689965
4.096510 0.261319 -0.650142
4.667490 0.296109 -0.574248
5.499950 0.347954 -0.482146
2.851880 0.174428 -0.765587
3.164750 0.192456 -0.731991
3.546980 0.215078 -0.690729
4.050070 0.244166 -0.642633
4.648680 0.278628 -0.571811
5.501130 0.328755 -0.482146
2.844700 0.165021 -0.763516
3.161450 0.182289 -0.731091
3.555470 0.204385 -0.692255
4.098150 0.234146 -0.650142
4.661430 0.264696 -0.573273
5.502140 0.311472 -0.482146
2.860690 0.155931 -0.767657
3.164010 0.171357 -0.731541
3.556170 0.191972 -0.692255
4.098940 0.219838 -0.650142
4.678180 0.249269 -0.575223
5.515130 0.292897 -0.483191
2.851570 0.145452 -0.765069
3.160700 0.160115 -0.730641
3.556810 0.179559 -0.692255
4.099680 0.205530 -0.650142
4.686950 0.233331 -0.576198
5.516120 0.273645 -0.483191
2.869430 0.136322 -0.769728
3.147610 0.148439 -0.727492
3.563300 0.167417 -0.693400
4.100380 0.191219 -0.650142
4.675840 0.216417 -0.574736
5.521020 0.254573 -0.483540
2.858310 0.125797 -0.766622
3.153950 0.137705 -0.728841
3.571710 0.155322 -0.694926
4.101020 0.176903 -0.650142
4.650790 0.198992 -0.571567
5.494050 0.233154 -0.481100
2.845240 0.114773 -0.762999
3.156360 0.126773 -0.729291
3.544790 0.141134 -0.689584
4.101640 0.161872 -0.650142
4.681210 0.183924 -0.575223
5.518720 0.214904 -0.483191
2.855270 0.105198 -0.765587
3.162650 0.115416 -0.730641
3.564880 0.129474 -0.693400
4.102180 0.147553 -0.650142
4.695740 0.167261 -0.576930
5.519440 0.195637 -0.483191
2.853690 0.095166 -0.765069
3.145500 0.103798 -0.726592
3.569240 0.117157 -0.694163
4.102670 0.133233 -0.650142
4.678430 0.150294 -0.574736
5.532040 0.176752 -0.484237
2.859800 0.085378 -0.766622
3.151690 0.092989 -0.727942
3.567660 0.104641 -0.693782
4.103110 0.118910 -0.650142
4.670990 0.133738 -0.573761
5.528640 0.157326 -0.483889
2.862010 0.075445 -0.767140
3.175370 0.082596 -0.733340
3.569970 0.092236 -0.694163
4.103500 0.104588 -0.650142
4.675400 0.117531 -0.574248
5.521180 0.137829 -0.483191
2.842940 0.065012 -0.761963
3.171750 0.071424 -0.732441
3.566340 0.079686 -0.693400
4.103840 0.090264 -0.650142
4.691660 0.101555 -0.576198
5.497730 0.118041 -0.481100
2.850880 0.055238 -0.764034
3.168080 0.060277 -0.731541
3.564640 0.067200 -0.693018
4.102160 0.075901 -0.649829
4.676110 0.084888 -0.574248
5.510060 0.099065 -0.482146
2.851050 0.045286 -0.764034
3.152680 0.048977 -0.727942
3.566810 0.054786 -0.693400
4.102400 0.061582 -0.649829
4.700190 0.068913 -0.577173
5.522320 0.080005 -0.483191
2.855060 0.035383 -0.765069
3.158680 0.038041 -0.729291
3.565020 0.042314 -0.693018
4.102590 0.047261 -0.649829
4.708350 0.052595 -0.578148
5.526550 0.060771 -0.483540
2.859030 0.025450 -0.766104
3.168540 0.027099 -0.731541
3.537660 0.029639 -0.687676
4.102730 0.032941 -0.649829
4.676730 0.036733 -0.574248
5.510790 0.041361 -0.482146
2.847500 0.015904 -0.762999
3.158860 0.016541 -0.729291
3.561300 0.018026 -0.692255
4.102810 0.019336 -0.649829
4.660950 0.021151 -0.572298
5.498950 0.023037 -0.481100
2.855270 0.006479 -0.765069
3.156950 0.006062 -0.728841
3.557410 0.005587 -0.691492
4.102850 0.005730 -0.649829
4.688790 0.004909 -0.575711
5.510950 0.003849 -0.482146
2.857210 -0.003989 -0.765587
3.153060 -0.005503 -0.727942
3.569190 -0.007475 -0.693782
4.102850 -0.009309 -0.649829
4.680830 -0.012254 -0.574736
5.530850 -0.016410 -0.483889
2.857170 -0.014462 -0.765587
3.153020 -0.017060 -0.727942
3.553430 -0.019846 -0.690729
4.102790 -0.024347 -0.649829
4.656930 -0.029261 -0.571811
5.522790 -0.035665 -0.483191
2.860970 -0.024468 -0.766622
3.160740 -0.027583 -0.729741
3.561200 -0.032321 -0.692255
4.102680 -0.037952 -0.649829
4.692540 -0.045047 -0.576198
5.510680 -0.054824 -0.482146
2.858940 -0.033932 -0.766104
3.180110 -0.038854 -0.734240
3.572850 -0.044276 -0.694545
4.102520 -0.052273 -0.649829
4.680450 -0.061270 -0.574736
5.502500 -0.072992 -0.481448
2.856870 -0.043882 -0.765587
3.172170 -0.049279 -0.732441
3.558930 -0.056529 -0.691873
4.102330 -0.065877 -0.649829
4.676250 -0.076726 -0.574248
5.482290 -0.091865 -0.479705
2.854780 -0.053319 -0.765069
3.168080 -0.060277 -0.731541
3.564610 -0.068444 -0.693018
4.070470 -0.079578 -0.644823
4.658090 -0.092693 -0.572055
5.497890 -0.110365 -0.481100
2.862300 -0.063455 -0.767140
3.160070 -0.070608 -0.729741
3.585940 -0.081376 -0.697216
4.101790 -0.093799 -0.649829
4.663710 -0.108278 -0.572786
5.509420 -0.129837 -0.482146
2.862070 -0.072947 -0.767140
3.179280 -0.082142 -0.734240
3.562100 -0.092655 -0.692637
4.101430 -0.108116 -0.649829
4.689100 -0.125245 -0.575955
5.508930 -0.149067 -0.482146
2.877240 -0.083887 -0.771281
3.175080 -0.093125 -0.733340
3.549960 -0.105360 -0.690347
4.101010 -0.123148 -0.649829
4.668790 -0.141013 -0.573517
5.496430 -0.167931 -0.481100
2.869200 -0.093677 -0.769210
3.172770 -0.104697 -0.732891
3.580970 -0.118793 -0.696453
4.100550 -0.137462 -0.649829
4.690070 -0.158864 -0.576198
5.471920 -0.186303 -0.479008
2.866930 -0.103622 -0.768693
3.166560 -0.115006 -0.731541
3.580530 -0.131292 -0.696453
4.102050 -0.151132 -0.650142
4.673650 -0.173825 -0.574248
5.523000 -0.207346 -0.483540
2.864640 -0.113053 -0.768175
3.173930 -0.126369 -0.733340
3.576150 -0.143008 -0.695690
4.101500 -0.165450 -0.650142
4.673010 -0.190138 -0.574248
5.494370 -0.225479 -0.481100
2.871920 -0.123884 -0.770245
3.181260 -0.137784 -0.735140
3.575610 -0.156114 -0.695690
4.100860 -0.180482 -0.650142
4.688180 -0.207150 -0.576198
5.505490 -0.245189 -0.482146
2.844460 -0.132649 -0.762999
3.172950 -0.149077 -0.733340
3.578960 -0.168780 -0.696453
4.100210 -0.194795 -0.650142
4.687390 -0.224332 -0.576198
5.492660 -0.263831 -0.481100
2.870990 -0.143931 -0.770245
3.168540 -0.159403 -0.732441
3.566590 -0.180675 -0.694163
4.067970 -0.206786 -0.645136
4.686620 -0.239874 -0.576198
5.515580 -0.284233 -0.483191
2.872430 -0.153554 -0.770763
3.166020 -0.170357 -0.731991
3.577730 -0.193137 -0.696453
4.098790 -0.222700 -0.650142
4.677830 -0.255799 -0.575223
5.526550 -0.303177 -0.484237
2.869940 -0.163470 -0.770245
3.161550 -0.180633 -0.731091
3.545670 -0.203821 -0.690347
4.098030 -0.236291 -0.650142
4.676960 -0.271310 -0.575223
5.493630 -0.320609 -0.481448
2.859740 -0.172405 -0.767657
3.168680 -0.192139 -0.732891
3.548900 -0.215816 -0.691110
4.097180 -0.250594 -0.650142
4.660130 -0.286658 -0.573273
5.516340 -0.341260 -0.483540
2.849450 -0.182268 -0.765069
3.164100 -0.202949 -0.731991
3.555920 -0.229328 -0.692637
4.096230 -0.265609 -0.650142
4.667020 -0.303439 -0.574248
5.515120 -0.360513 -0.483540
2.871930 -0.193774 -0.771281
3.167220 -0.214809 -0.732891
3.566850 -0.242538 -0.694926
4.095280 -0.279906 -0.650142
4.657960 -0.319998 -0.573273
5.509850 -0.379489 -0.483191
2.863530 -0.203251 -0.769210
3.162560 -0.225586 -0.731991
3.585560 -0.256387 -0.698743
4.094280 -0.294200 -0.650142
4.660770 -0.336541 -0.573761
5.496570 -0.397856 -0.482146
2.868580 -0.213676 -0.770763
3.155930 -0.236188 -0.730641
3.557240 -0.266846 -0.693400
4.093230 -0.308490 -0.650142
4.679360 -0.354307 -0.576198
5.511040 -0.418247 -0.483540
2.877450 -0.224439 -0.773351
3.164800 -0.247964 -0.732891
3.571940 -0.280491 -0.696453
4.092120 -0.322776 -0.650142
4.658310 -0.369071 -0.573761
5.473800 -0.434642 -0.480402
2.857390 -0.232912 -0.768175
3.154200 -0.258214 -0.730641
3.551380 -0.291352 -0.692637
4.090970 -0.337058 -0.650142
4.684690 -0.387621 -0.577173
5.484160 -0.454735 -0.481448
2.858490 -0.243048 -0.768693
3.164980 -0.269665 -0.733340
3.581630 -0.306425 -0.698743
4.089830 -0.350622 -0.650142
4.691290 -0.403835 -0.578148
5.502390 -0.475591 -0.483191
6.512650 -0.564057 -0.342591
2.865360 -0.253206 -0.770763
3.164020 -0.280711 -0.733340
3.584510 -0.318648 -0.699506
4.088580 -0.364896 -0.650142
4.689850 -0.420208 -0.578148
5.488870 -0.492766 -0.482146
6.510640 -0.586787 -0.342591
2.864460 -0.263207 -0.770763
3.161080 -0.291575 -0.732891
3.567740 -0.329713 -0.696453
4.087280 -0.379166 -0.650142
4.672540 -0.435104 -0.576198
5.510930 -0.514144 -0.484237
6.508550 -0.609509 -0.342591
2.859680 -0.272837 -0.769728
3.161980 -0.302793 -0.733340
3.597830 -0.345164 -0.702559
4.085940 -0.393431 -0.650142
4.671000 -0.451411 -0.576198
5.485300 -0.531073 -0.482146
6.506380 -0.632225 -0.342591
2.852940 -0.282247 -0.768175
3.157030 -0.313444 -0.732441
3.565350 -0.354612 -0.696453
4.084540 -0.407691 -0.650142
4.685190 -0.469296 -0.578148
5.483410 -0.550217 -0.482146
2.848090 -0.291810 -0.767140
3.163670 -0.325259 -0.734240
3.583620 -0.369067 -0.700269
4.083090 -0.421946 -0.650142
4.687480 -0.486057 -0.578636
5.481460 -0.569355 -0.482146
6.501810 -0.677632 -0.342591
2.860510 -0.303175 -0.770763
3.156700 -0.335682 -0.732891
3.566690 -0.379910 -0.697216
4.081590 -0.436196 -0.650142
4.697590 -0.503686 -0.580098
5.503210 -0.591038 -0.484237
6.499410 -0.700323 -0.342591
2.865250 -0.313289 -0.772316
3.155570 -0.346148 -0.732891
3.549800 -0.390020 -0.694163
4.080120 -0.449729 -0.650142
4.678140 -0.517298 -0.577904
5.501220 -0.609284 -0.484237
2.871810 -0.324156 -0.774387
3.164020 -0.358258 -0.735140
3.571820 -0.405064 -0.698743
4.078530 -0.463968 -0.650142
4.656580 -0.531374 -0.575467
5.487180 -0.627126 -0.483191
6.494490 -0.744547 -0.342591
2.857230 -0.332615 -0.770763
3.164690 -0.369526 -0.735590
3.562590 -0.416617 -0.697216
4.076880 -0.478202 -0.650142
4.674420 -0.549945 -0.577904
5.461220 -0.643478 -0.481100
6.491850 -0.767212 -0.342591
2.848380 -0.341666 -0.768693
3.145970 -0.378476 -0.731541
3.568910 -0.429990 -0.698743
4.075190 -0.492430 -0.650142
4.688230 -0.568169 -0.579854
5.470800 -0.663978 -0.482146
6.489130 -0.789869 -0.342591
2.854840 -0.352554 -0.770763
3.133020 -0.388018 -0.728841
3.575180 -0.443411 -0.700269
4.073450 -0.506652 -0.650142
4.688190 -0.584776 -0.580098
5.488220 -0.685540 -0.483889
2.870840 -0.364708 -0.775422
3.164510 -0.403138 -0.736490
3.577510 -0.456385 -0.701032
4.103000 -0.524879 -0.655148
4.634930 -0.594570 -0.573761
5.458130 -0.701139 -0.481448
2.863800 -0.373976 -0.773869
3.153420 -0.412917 -0.734240
3.572000 -0.468360 -0.700269
4.069810 -0.535078 -0.650142
4.683990 -0.617491 -0.580098
5.487250 -0.724359 -0.484237
6.480510 -0.857778 -0.342591
2.852910 -0.382686 -0.771281
3.161700 -0.424669 -0.736490
3.585910 -0.482922 -0.703322
4.068010 -0.548571 -0.650142
4.674050 -0.631957 -0.579123
5.476800 -0.742439 -0.483540
2.861190 -0.393461 -0.773869
3.156330 -0.435170 -0.735590
3.557060 -0.491052 -0.697979
4.066070 -0.562768 -0.650142
4.679680 -0.649359 -0.580098
5.497850 -0.764846 -0.485632
2.852080 -0.402864 -0.771798
3.143220 -0.444548 -0.732891
3.559120 -0.504637 -0.698743
4.063980 -0.577667 -0.650142
4.667560 -0.664292 -0.578879
5.495150 -0.784032 -0.485632
2.854480 -0.413371 -0.772834
3.155070 -0.458025 -0.736040
3.565110 -0.518187 -0.700269
4.061940 -0.591849 -0.650142
4.675030 -0.682014 -0.580098
5.492380 -0.803209 -0.485632
2.851180 -0.422551 -0.772316
3.147750 -0.467626 -0.734690
3.540070 -0.526540 -0.695690
4.059960 -0.605316 -0.650142
4.670780 -0.697220 -0.579854
5.489680 -0.821418 -0.485632
2.840210 -0.430556 -0.769728
3.150030 -0.478647 -0.735590
3.561500 -0.542442 -0.700269
4.057930 -0.618776 -0.650142
4.668320 -0.713520 -0.579854
5.498600 -0.842386 -0.486678
6.500780 -0.998242 -0.344685
2.846250 -0.442149 -0.771798
3.138630 -0.488690 -0.733340
3.540090 -0.552464 -0.696453
4.055630 -0.633645 -0.650142
4.708820 -0.737382 -0.585217
5.471860 -0.858827 -0.484586
2.848430 -0.453185 -0.772834
3.138740 -0.500498 -0.733790
3.561400 -0.568532 -0.701032
4.104000 -0.656619 -0.658276
4.690410 -0.752121 -0.583267
5.464890 -0.877290 -0.484237
6.505300 -1.046640 -0.345313
2.839200 -0.461885 -0.770763
3.138900 -0.511765 -0.734240
3.536150 -0.577165 -0.696453
4.082180 -0.667752 -0.655148
4.664240 -0.764635 -0.580342
5.489320 -0.900878 -0.486678
2.858540 -0.475278 -0.776457
3.146700 -0.524320 -0.736490
3.557350 -0.593381 -0.701032
4.048660 -0.676786 -0.650142
4.661680 -0.780098 -0.580342
5.474350 -0.918057 -0.485632
6.497830 -1.092030 -0.345313
2.835990 -0.481200 -0.770763
3.125740 -0.531485 -0.731991
3.551490 -0.604516 -0.700269
4.046390 -0.690208 -0.650142
4.682550 -0.799562 -0.583267
5.498770 -0.940910 -0.488072
6.494180 -1.113570 -0.345313
2.840090 -0.491590 -0.772316
3.129720 -0.542846 -0.733340
3.530120 -0.612931 -0.696453
4.044080 -0.703623 -0.650142
4.695380 -0.818630 -0.585217
5.479920 -0.956399 -0.486678
6.510120 -1.138540 -0.346359
2.842160 -0.502173 -0.773351
3.127800 -0.553768 -0.733340
3.551160 -0.629361 -0.701032
4.041600 -0.717735 -0.650142
4.649500 -0.827364 -0.579854
5.492240 -0.978317 -0.488072
6.506110 -1.161260 -0.346359
2.844200 -0.512777 -0.774387
3.122020 -0.563990 -0.732441
3.548940 -0.641753 -0.701032
4.039070 -0.731839 -0.650142
4.658300 -0.845716 -0.581317
5.508220 -1.002010 -0.489815
2.840400 -0.522848 -0.773869
3.143030 -0.579122 -0.737839
3.527260 -0.651192 -0.697216
4.036360 -0.746638 -0.650142
4.659220 -0.862694 -0.581804
5.496850 -1.019770 -0.489118
2.844250 -0.533829 -0.775422
3.138970 -0.590277 -0.737390
3.544260 -0.667132 -0.701032
4.103610 -0.773901 -0.661405
4.667730 -0.881977 -0.583267
5.450010 -1.031760 -0.485283
2.830890 -0.542070 -0.772316
3.129230 -0.599764 -0.735590
3.518650 -0.675675 -0.696453
4.030910 -0.775502 -0.650142
4.660730 -0.897514 -0.582779
5.477680 -1.056820 -0.488072
2.838750 -0.552312 -0.774904
3.127330 -0.609591 -0.735590
3.559020 -0.694383 -0.704848
4.028590 -0.787458 -0.650142
4.657880 -0.912152 -0.582779
5.494070 -1.076900 -0.489815
6.492910 -1.275040 -0.346778
2.840600 -0.562968 -0.775940
3.146210 -0.624679 -0.740539
3.541170 -0.703741 -0.701796
4.025820 -0.801516 -0.650142
4.646880 -0.926852 -0.581804
5.470740 -1.092170 -0.488072
6.508010 -1.301610 -0.347825
2.836720 -0.572498 -0.775422
3.123000 -0.631409 -0.735590
3.542540 -0.716876 -0.702559
4.046230 -0.820273 -0.653896
4.647510 -0.943857 -0.582292
5.451270 -1.108080 -0.486678
2.819570 -0.579287 -0.771281
3.124590 -0.643092 -0.736490
3.509250 -0.722900 -0.696453
4.037540 -0.833195 -0.652958
4.640300 -0.959271 -0.581804
5.462980 -1.130330 -0.488072
6.498760 -1.347010 -0.347825
2.826980 -0.591102 -0.773869
3.133770 -0.656392 -0.739189
3.529770 -0.739979 -0.701032
4.015270 -0.843223 -0.649829
4.652460 -0.978732 -0.583754
5.458800 -1.150350 -0.488072
6.474480 -1.365570 -0.346778
2.828580 -0.602264 -0.774904
3.112410 -0.663266 -0.734690
3.534710 -0.754551 -0.702559
4.035340 -0.862891 -0.653583
4.649020 -0.994966 -0.583754
5.458650 -1.170230 -0.488421
6.488960 -1.393480 -0.347825
2.835900 -0.614179 -0.777492
3.117570 -0.676321 -0.736490
3.551240 -0.771050 -0.706375
4.009140 -0.871934 -0.649829
4.653100 -1.013690 -0.584729
5.493460 -1.197770 -0.491907
6.484050 -1.416120 -0.347825
2.818640 -0.620750 -0.773351
3.119120 -0.687495 -0.737390
3.510190 -0.774977 -0.698743
4.006220 -0.885224 -0.649829
4.641960 -1.027400 -0.583754
5.458120 -1.210040 -0.489118
6.444220 -1.429830 -0.345941
2.816570 -0.630094 -0.773351
3.139520 -0.703491 -0.742788
3.530590 -0.791768 -0.703322
4.003110 -0.899203 -0.649829
4.634470 -1.042720 -0.583267
5.442420 -1.225500 -0.488072
6.497640 -1.465500 -0.349081
2.814350 -0.639921 -0.773351
3.114370 -0.708710 -0.737390
3.523970 -0.803214 -0.702559
4.030920 -0.919502 -0.654835
4.650340 -1.062510 -0.585704
5.438110 -1.244490 -0.488072
6.492750 -1.487040 -0.349081
2.812210 -0.649251 -0.773351
3.111870 -0.719577 -0.737390
3.544240 -0.820208 -0.707138
3.996890 -0.926430 -0.649829
4.619530 -1.072450 -0.582292
5.437610 -1.264370 -0.488421
6.464170 -1.504260 -0.347825
2.821100 -0.662202 -0.776457
3.122620 -0.733554 -0.740539
3.537390 -0.832293 -0.706375
4.043460 -0.952854 -0.657963
4.627350 -1.091300 -0.583754
5.440920 -1.285180 -0.489118
6.458620 -1.527940 -0.347825
2.815010 -0.671150 -0.775422
3.100960 -0.740468 -0.736040
3.515370 -0.840073 -0.702559
3.990160 -0.955008 -0.649829
4.607880 -1.104550 -0.581804
5.428650 -1.302300 -0.488421
6.453240 -1.550480 -0.347825
2.799510 -0.677790 -0.771798
3.115530 -0.754877 -0.740089
3.523860 -0.855116 -0.704848
3.986970 -0.968234 -0.649829
4.646630 -1.130150 -0.587167
5.439560 -1.325020 -0.489815
2.799120 -0.687530 -0.772316
3.118550 -0.767145 -0.741439
3.509570 -0.863981 -0.702559
3.983570 -0.982145 -0.649829
4.615670 -1.139700 -0.583754
5.435140 -1.343050 -0.489815
6.489070 -1.605880 -0.350337
2.809830 -0.700568 -0.775940
3.096950 -0.773305 -0.736940
3.529390 -0.881938 -0.707138
4.010780 -1.003720 -0.654835
4.630920 -1.160630 -0.586192
5.453610 -1.367830 -0.491907
6.417560 -1.611980 -0.346778
2.803620 -0.709425 -0.774904
3.107450 -0.787461 -0.740089
3.492030 -0.885566 -0.700269
3.976620 -1.009930 -0.649829
4.599910 -1.169940 -0.582779
5.460380 -1.389800 -0.492953
6.458350 -1.646210 -0.349290
2.801130 -0.719207 -0.774904
3.112240 -0.800245 -0.741889
3.523140 -0.906556 -0.707138
3.973070 -1.023810 -0.649829
4.603480 -1.187970 -0.583754
5.424630 -1.400890 -0.490164
6.452560 -1.668750 -0.349290
2.802340 -0.729954 -0.775940
3.103770 -0.809628 -0.740539
3.519960 -0.918849 -0.707138
3.969470 -1.037670 -0.649829
4.591630 -1.202020 -0.582779
5.419710 -1.419810 -0.490164
2.799770 -0.739731 -0.775940
3.104690 -0.821454 -0.741439
3.505340 -0.928115 -0.704848
4.004010 -1.061640 -0.656086
4.602750 -1.222120 -0.584729
5.449380 -1.447930 -0.493302
6.510240 -1.732240 -0.353058
2.789710 -0.747500 -0.773869
3.088630 -0.828751 -0.738289
3.502080 -0.940346 -0.704848
4.011730 -1.078690 -0.657963
4.602510 -1.238410 -0.585217
5.428900 -1.462800 -0.491907
6.407740 -1.728940 -0.347825
2.805860 -0.761809 -0.779045
3.093390 -0.841034 -0.740089
3.480000 -0.946800 -0.701032
3.996690 -1.088870 -0.656086
4.617530 -1.258880 -0.587654
5.462460 -1.491290 -0.495393
6.448210 -1.762820 -0.350337
2.803320 -0.771109 -0.779045
3.094340 -0.852322 -0.740989
3.495770 -0.963551 -0.704848
3.954980 -1.091610 -0.649829
4.601850 -1.271020 -0.586192
5.457490 -1.509390 -0.495393
6.442330 -1.784190 -0.350337
2.789580 -0.777290 -0.775940
3.095250 -0.863626 -0.741889
3.458520 -0.965635 -0.697979
3.989380 -1.115360 -0.656086
4.612900 -1.290550 -0.588142
5.425590 -1.519960 -0.492953
6.447910 -1.808780 -0.350965
2.771840 -0.783306 -0.771798
3.099560 -0.877088 -0.743688
3.526740 -0.998630 -0.712481
4.042280 -1.146140 -0.665472
4.592630 -1.303910 -0.586192
5.446550 -1.548410 -0.495393
6.429710 -1.829130 -0.350337
2.776380 -0.795589 -0.773869
3.075880 -0.881993 -0.738739
3.507960 -1.007220 -0.709428
3.943130 -1.133650 -0.649829
4.599500 -1.323230 -0.587654
5.441110 -1.567410 -0.495393
6.434480 -1.856000 -0.350965
2.788420 -0.809584 -0.778010
3.070750 -0.892717 -0.738289
3.504420 -1.019450 -0.709428
3.939150 -1.147410 -0.649829
4.594620 -1.340080 -0.587654
5.435610 -1.586390 -0.495393
6.408790 -1.872850 -0.349918
2.778170 -0.817132 -0.775940
3.078830 -0.906734 -0.740989
3.489540 -1.028350 -0.707138
4.029850 -1.189110 -0.665472
4.582300 -1.353860 -0.586679
5.430030 -1.605360 -0.495393
6.429030 -1.903140 -0.351384
2.771600 -0.825722 -0.774904
3.086850 -0.920817 -0.743688
3.474640 -1.037160 -0.704848
3.980250 -1.189590 -0.657963
4.588960 -1.373260 -0.588142
5.424400 -1.624300 -0.495393
6.452950 -1.934750 -0.353058
2.768700 -0.835391 -0.774904
3.068860 -0.926543 -0.740089
3.534890 -1.068590 -0.717823
3.976280 -1.202780 -0.657963
4.591980 -1.390770 -0.589116
5.418690 -1.643230 -0.495393
6.396810 -1.941060 -0.350337
2.773300 -0.846825 -0.776975
3.073060 -0.939528 -0.741889
3.482520 -1.065380 -0.707901
3.953170 -1.210870 -0.654835
4.568120 -1.400970 -0.586679
5.412930 -1.662130 -0.495393
6.439630 -1.978630 -0.353058
2.788630 -0.862693 -0.782151
3.062310 -0.947945 -0.740089
3.489840 -1.081620 -0.710191
3.941160 -1.223010 -0.653583
4.578360 -1.421620 -0.588629
5.407090 -1.681020 -0.495393
6.432340 -2.002220 -0.353058
2.767170 -0.866648 -0.776975
3.071840 -0.963244 -0.743238
3.459820 -1.085570 -0.704848
3.951950 -1.241500 -0.656086
4.569340 -1.437200 -0.588142
5.401190 -1.699880 -0.495393
6.425310 -2.024660 -0.353058
2.745710 -0.870464 -0.771798
3.070310 -0.974550 -0.743688
3.474720 -1.103580 -0.708665
3.966410 -1.261270 -0.659215
4.590770 -1.461570 -0.591554
5.395220 -1.718720 -0.495393
6.418200 -2.047080 -0.353058
2.764730 -0.887126 -0.778010
3.066890 -0.985262 -0.743688
3.433470 -1.103690 -0.701032
3.943180 -1.269050 -0.656086
4.585900 -1.476790 -0.591554
5.389190 -1.737550 -0.495393
6.411020 -2.069470 -0.353058
2.765450 -0.897482 -0.779045
3.069170 -0.997233 -0.745038
3.455930 -1.123570 -0.706375
3.952100 -1.286400 -0.658276
4.528130 -1.474770 -0.584729
5.383400 -1.755410 -0.495393
6.442090 -2.103110 -0.355152
2.760620 -0.906045 -0.778528
3.060290 -1.005580 -0.743688
3.444720 -1.132570 -0.704848
3.944060 -1.298270 -0.657651
4.549350 -1.499270 -0.588142
5.407820 -1.783230 -0.498182
6.397150 -2.111940 -0.353058
2.742780 -0.910805 -0.774387
3.075250 -1.022400 -0.748187
3.422120 -1.138390 -0.701032
3.950750 -1.315770 -0.659528
4.544090 -1.515140 -0.588142
5.397790 -1.800840 -0.497834
6.389740 -2.134260 -0.353058
2.743240 -0.921605 -0.775422
3.075360 -1.034380 -0.749087
3.455340 -1.162850 -0.708665
3.889970 -1.310630 -0.650142
4.553820 -1.536070 -0.590091
5.365040 -1.810750 -0.495393
6.420100 -2.169340 -0.355152
2.743670 -0.932418 -0.776457
3.049590 -1.037570 -0.743688
3.443830 -1.172370 -0.707138
3.930250 -1.339500 -0.657651
4.548430 -1.551960 -0.590091
5.358690 -1.829470 -0.495393
6.423830 -2.195610 -0.355780
2.745880 -0.943873 -0.778010
3.051480 -1.050110 -0.745038
3.436000 -1.183110 -0.706375
3.925550 -1.353210 -0.657651
4.535480 -1.565230 -0.589116
5.378630 -1.857260 -0.497834
6.416120 -2.218020 -0.355780
2.749860 -0.955990 -0.780081
3.034910 -1.056270 -0.741889
3.468930 -1.208010 -0.714007
3.931990 -1.370800 -0.659528
4.522490 -1.578440 -0.588142
5.383400 -1.879970 -0.498879
6.397030 -2.236450 -0.355152
2.742870 -0.964301 -0.779045
3.042240 -1.070740 -0.744588
3.431360 -1.208370 -0.707138
3.919730 -1.381890 -0.658276
4.524440 -1.596860 -0.589116
5.369290 -1.896090 -0.498182
6.389180 -2.258760 -0.355152
2.726740 -0.969340 -0.775422
3.042150 -1.082660 -0.745488
3.434520 -1.222980 -0.708665
3.933490 -1.402200 -0.661405
4.526320 -1.615310 -0.590091
5.332620 -1.904110 -0.495393
6.381260 -2.281050 -0.355152
2.728790 -0.980813 -0.776975
3.036520 -1.092620 -0.745038
3.445010 -1.240280 -0.711718
3.917420 -1.411900 -0.659528
4.513180 -1.628410 -0.589116
5.355920 -1.933530 -0.498182
6.384530 -2.307390 -0.355780
2.734430 -0.993631 -0.779563
3.016210 -1.097210 -0.740989
3.418520 -1.244240 -0.707138
3.949590 -1.439100 -0.665785
4.514930 -1.646870 -0.590091
5.349140 -1.952220 -0.498182
6.327660 -2.311840 -0.353058
2.752710 -1.011160 -0.785775
3.036130 -1.116480 -0.746837
3.451000 -1.269720 -0.714771
3.888930 -1.432390 -0.656399
4.527780 -1.669490 -0.592529
5.349770 -1.973640 -0.498879
6.394490 -2.361590 -0.357245
2.741920 -1.018080 -0.783704
3.041350 -1.130460 -0.749087
3.420790 -1.272180 -0.709428
3.920940 -1.459740 -0.662656
4.540520 -1.692210 -0.594966
5.335380 -1.989510 -0.498182
6.311370 -2.355960 -0.353058
2.727320 -1.024040 -0.780598
3.040840 -1.142980 -0.749987
3.394050 -1.276420 -0.704848
3.841610 -1.446260 -0.650142
4.523150 -1.704640 -0.593504
5.316870 -2.004840 -0.497136
6.422280 -2.424210 -0.359757
2.721920 -1.032870 -0.780081
3.020630 -1.146830 -0.745938
3.437290 -1.306390 -0.714771
3.866340 -1.470230 -0.655148
4.521180 -1.721050 -0.593991
5.291220 -2.016290 -0.495393
2.727500 -1.045350 -0.782669
3.007510 -1.153870 -0.743688
3.447600 -1.323410 -0.717823
3.905430 -1.500720 -0.662656
4.492910 -1.728270 -0.591066
5.303100 -2.040980 -0.497136
6.353440 -2.447770 -0.356827
2.734640 -1.059050 -0.785775
3.012550 -1.167890 -0.745938
3.428320 -1.329760 -0.714771
3.870710 -1.502900 -0.657651
4.494250 -1.746820 -0.592041
5.314510 -2.066700 -0.498879
6.344860 -2.469930 -0.356827
2.727330 -1.067180 -0.784739
3.013900 -1.180530 -0.747287
3.430970 -1.344580 -0.716297
3.872800 -1.519290 -0.658902
4.506600 -1.769750 -0.594479
5.270180 -2.070670 -0.495393
6.388240 -2.512530 -0.359757
2.711010 -1.071720 -0.781116
3.020840 -1.194820 -0.749987
3.415300 -1.352210 -0.714007
3.871410 -1.533580 -0.659528
4.478570 -1.775900 -0.591554
5.311070 -2.108160 -0.499925
6.379880 -2.533700 -0.359757
2.712830 -1.082860 -0.782669
3.016650 -1.205350 -0.749987
3.429030 -1.370820 -0.717823
3.902710 -1.561760 -0.665785
4.483400 -1.795950 -0.593016
5.303670 -2.126690 -0.499925
6.437720 -2.582730 -0.363526
2.716010 -1.095680 -0.784739
2.990740 -1.207120 -0.744588
3.423980 -1.383380 -0.717823
3.915270 -1.583460 -0.668914
4.477100 -1.811590 -0.593016
5.322070 -2.155660 -0.502366
6.317160 -2.561280 -0.357245
2.712160 -1.105160 -0.784739
2.989910 -1.219550 -0.745488
3.448210 -1.407190 -0.723929
3.891440 -1.589650 -0.665785
4.470430 -1.827990 -0.593016
5.277630 -2.159140 -0.498879
6.363630 -2.606020 -0.360385
2.697570 -1.110210 -0.781634
3.014680 -1.241330 -0.752686
3.417870 -1.408740 -0.718587
3.856920 -1.590500 -0.660779
4.449660 -1.836750 -0.591066
5.325310 -2.200370 -0.504109
6.318040 -2.611850 -0.358292
2.695660 -1.119890 -0.782151
2.999530 -1.247360 -0.749987
3.427680 -1.426100 -0.721640
3.844060 -1.600910 -0.659528
4.450550 -1.855320 -0.592041
5.299590 -2.210350 -0.502366
6.353120 -2.652360 -0.360804
2.707770 -1.136020 -0.786810
2.998970 -1.258800 -0.750887
3.397340 -1.427410 -0.716297
3.831440 -1.610590 -0.658276
4.473650 -1.882390 -0.595941
5.280830 -2.224200 -0.501320
6.355330 -2.678060 -0.361432
2.696870 -1.141980 -0.784739
2.983790 -1.264700 -0.748187
3.421510 -1.450930 -0.722403
3.840340 -1.630130 -0.660779
4.448780 -1.890230 -0.593504
5.288090 -2.247930 -0.502714
6.327560 -2.692410 -0.360385
2.692870 -1.151380 -0.784739
2.982940 -1.276640 -0.749087
3.380330 -1.447410 -0.714771
3.827370 -1.640410 -0.659528
4.431210 -1.901050 -0.592041
5.280210 -2.266380 -0.502714
6.373180 -2.738130 -0.363526
2.692380 -1.162310 -0.785775
2.990990 -1.292460 -0.752236
3.382460 -1.462320 -0.716297
3.839750 -1.661610 -0.662656
4.439120 -1.922820 -0.593991
5.305180 -2.299050 -0.505852
6.363580 -2.760360 -0.363526
2.681220 -1.168610 -0.783704
2.977530 -1.299000 -0.749987
3.391730 -1.480400 -0.719350
3.852020 -1.682910 -0.665785
4.446930 -1.944670 -0.595941
5.264260 -2.303180 -0.502714
6.317320 -2.766540 -0.361432
2.687730 -1.182630 -0.786810
2.974760 -1.310170 -0.750437
3.397320 -1.496980 -0.721640
3.846130 -1.696340 -0.665785
4.447380 -1.963380 -0.596916
5.289000 -2.336030 -0.505852
6.344150 -2.804720 -0.363526
2.687120 -1.193570 -0.787845
2.959490 -1.315790 -0.747737
3.388490 -1.507240 -0.720876
3.840180 -1.709760 -0.665785
4.436880 -1.977280 -0.596429
5.284450 -2.356100 -0.506201
6.334330 -2.826850 -0.363526
2.675890 -1.199790 -0.785775
2.961990 -1.329310 -0.749537
3.390370 -1.522270 -0.722403
3.834190 -1.723150 -0.665785
4.415460 -1.986240 -0.594479
5.287090 -2.379440 -0.507246
6.324420 -2.848940 -0.363526
2.671680 -1.209120 -0.785775
2.962650 -1.342050 -0.750887
3.360000 -1.522750 -0.717060
3.802970 -1.725100 -0.661405
4.419350 -2.006570 -0.595941
5.264240 -2.391290 -0.505852
6.314440 -2.871000 -0.363526
2.662170 -1.216030 -0.784222
2.972130 -1.358870 -0.754486
3.354670 -1.534470 -0.717060
3.840030 -1.758100 -0.668914
4.412320 -2.021980 -0.595941
5.223260 -2.394710 -0.502714
6.304380 -2.893030 -0.363526
2.673700 -1.232590 -0.788880
2.958520 -1.365150 -0.752236
3.359990 -1.551110 -0.719350
3.798000 -1.754920 -0.662656
4.426850 -2.047370 -0.598866
5.229340 -2.419620 -0.504109
6.294240 -2.915020 -0.363526
2.660630 -1.237840 -0.786292
2.959040 -1.377940 -0.753586
3.375910 -1.572780 -0.723929
3.809760 -1.776520 -0.665785
4.408890 -2.057770 -0.597404
5.242520 -2.447970 -0.506201
6.284030 -2.936970 -0.363526
2.654540 -1.246300 -0.785775
2.940100 -1.381630 -0.749987
3.370400 -1.584550 -0.723929
3.821410 -1.798220 -0.668914
4.394490 -2.069770 -0.596429
5.233950 -2.466260 -0.506201
6.309860 -2.975930 -0.365619
2.643190 -1.252250 -0.783704
2.940540 -1.394390 -0.751337
3.300990 -1.566010 -0.710191
3.815110 -1.811550 -0.668914
4.398360 -2.089440 -0.597891
5.203710 -2.474250 -0.504109
6.263370 -2.980770 -0.363526
2.646000 -1.264340 -0.785775
2.949970 -1.410860 -0.754936
3.348910 -1.602370 -0.721640
3.880340 -1.858320 -0.681429
4.387830 -2.102300 -0.597404
5.231410 -2.508720 -0.507595
2.645270 -1.274790 -0.786810
2.924210 -1.410470 -0.749537
3.329430 -1.606640 -0.718587
3.803010 -1.836810 -0.668914
4.376890 -2.115870 -0.596916
5.223060 -2.526050 -0.507595
2.647750 -1.287390 -0.788880
2.929780 -1.425790 -0.752236
3.327330 -1.619970 -0.719350
3.821430 -1.862190 -0.673294
4.394460 -2.143320 -0.600328
5.196310 -2.535530 -0.505852
2.636300 -1.293220 -0.786810
2.921290 -1.434290 -0.751337
3.300510 -1.621190 -0.714771
3.814910 -1.875510 -0.673294
4.379830 -2.155140 -0.599353
5.233900 -2.576530 -0.510384
2.642160 -1.307560 -0.789916
2.928740 -1.450020 -0.754486
3.326490 -1.648390 -0.721640
3.819290 -1.893420 -0.675171
4.393990 -2.180240 -0.602278
5.207030 -2.585930 -0.508641
2.630900 -1.312860 -0.787845
2.939350 -1.468070 -0.758535
3.278570 -1.638930 -0.712481
3.847990 -1.924410 -0.681429
4.400560 -2.202670 -0.604228
5.219350 -2.614790 -0.510733
2.622620 -1.320760 -0.786810
2.926990 -1.475320 -0.756735
3.307600 -1.668620 -0.720113
3.812700 -1.924260 -0.676423
4.371190 -2.208050 -0.601303
5.231070 -2.644690 -0.512824
2.634980 -1.339120 -0.791986
2.918090 -1.484280 -0.755836
3.312260 -1.685490 -0.722403
3.763370 -1.916710 -0.668914
4.363460 -2.223290 -0.601303
5.221800 -2.662940 -0.512824
2.633960 -1.349610 -0.793022
2.909680 -1.492170 -0.754936
3.296170 -1.691090 -0.720113
3.792140 -1.947220 -0.675171
4.356060 -2.237750 -0.601303
5.248380 -2.698460 -0.516311
2.607160 -1.346810 -0.786292
2.918570 -1.508970 -0.758535
3.276590 -1.694800 -0.717060
3.775140 -1.954340 -0.673294
4.355270 -2.256590 -0.602278
5.204030 -2.697510 -0.512824
2.607580 -1.358580 -0.787845
2.909830 -1.517340 -0.757635
3.291540 -1.717120 -0.721640
3.784050 -1.975730 -0.676110
4.368480 -2.282820 -0.605203
5.240490 -2.739660 -0.517356
2.595990 -1.364080 -0.785775
2.906240 -1.528400 -0.758085
3.306380 -1.739570 -0.726219
3.759650 -1.979730 -0.672981
4.339410 -2.286950 -0.602278
5.213270 -2.748640 -0.515613
2.603160 -1.379460 -0.789398
2.869890 -1.522100 -0.749987
3.289880 -1.745580 -0.723929
3.724810 -1.978010 -0.667975
4.348930 -2.311400 -0.604716
5.210680 -2.770570 -0.516311
2.601730 -1.390360 -0.790433
2.885190 -1.543130 -0.755386
3.294150 -1.762610 -0.726219
3.745740 -2.005920 -0.672981
4.333840 -2.322810 -0.603741
5.211510 -2.794390 -0.517356
2.601970 -1.402190 -0.791986
2.890070 -1.558750 -0.758085
3.287980 -1.774100 -0.726219
3.738720 -2.018990 -0.672981
4.322210 -2.336040 -0.603253
5.201720 -2.812560 -0.517356
2.586870 -1.405730 -0.788880
2.882900 -1.567890 -0.757635
3.271420 -1.779930 -0.723929
3.731650 -2.032030 -0.672981
4.331460 -2.360610 -0.605691
5.180890 -2.825880 -0.516311
2.590170 -1.419840 -0.791469
2.885950 -1.582630 -0.759885
3.254550 -1.786250 -0.721640
3.699930 -2.032370 -0.668601
4.338850 -2.384320 -0.607884
5.164010 -2.840110 -0.515613
2.585200 -1.428870 -0.791469
2.880130 -1.593200 -0.759885
3.258600 -1.803300 -0.723929
3.727380 -2.064420 -0.674858
4.324880 -2.397320 -0.607153
5.126180 -2.842660 -0.512824
2.583570 -1.439770 -0.792504
2.871430 -1.600840 -0.758985
3.279720 -1.829970 -0.730035
3.755010 -2.096020 -0.681116
4.311700 -2.408740 -0.606422
5.171880 -2.891650 -0.518402
2.585520 -1.452110 -0.794574
2.865830 -1.610860 -0.758985
3.256520 -1.831210 -0.726219
3.747670 -2.109120 -0.681116
4.329210 -2.438390 -0.610078
5.151850 -2.902920 -0.517356
2.560260 -1.449710 -0.788363
2.870360 -1.626620 -0.761684
3.274020 -1.856120 -0.731562
3.740280 -2.122190 -0.681116
4.310320 -2.447610 -0.608616
5.183260 -2.944500 -0.521540
2.568610 -1.466300 -0.792504
2.854510 -1.630830 -0.758985
3.260700 -1.863640 -0.730035
3.732850 -2.135230 -0.681116
4.301750 -2.462640 -0.608616
5.141830 -2.944750 -0.518402
2.560130 -1.473330 -0.791469
2.845420 -1.638830 -0.758085
3.240570 -1.867170 -0.726982
3.725380 -2.148250 -0.681116
4.286250 -2.473670 -0.607641
5.145320 -2.970650 -0.519797
2.558570 -1.483750 -0.792504
2.860200 -1.660000 -0.763484
3.237750 -1.879880 -0.727746
3.718230 -2.160590 -0.681116
4.278020 -2.487870 -0.607641
5.152660 -2.997720 -0.521540
2.553370 -1.492670 -0.792504
2.852700 -1.668990 -0.763034
3.214230 -1.881250 -0.723929
3.710670 -2.173550 -0.681116
4.279590 -2.508810 -0.609103
2.544820 -1.499610 -0.791469
2.841820 -1.675970 -0.761684
3.221170 -1.900440 -0.726982
3.703060 -2.186490 -0.681116
4.274220 -2.525750 -0.609591
2.542890 -1.510460 -0.792504
2.840980 -1.688860 -0.763034
3.217890 -1.913680 -0.727746
3.695400 -2.199410 -0.681116
4.289260 -2.554880 -0.613003
2.545890 -1.524290 -0.795092
2.830050 -1.695770 -0.761684
3.217920 -1.928940 -0.729272
3.687700 -2.212290 -0.681116
4.273500 -2.565750 -0.612028
2.552130 -1.540150 -0.798716
2.824120 -1.705630 -0.761684
3.197730 -1.932040 -0.726219
3.679960 -2.225150 -0.681116
4.240750 -2.566260 -0.608616
2.531890 -1.540020 -0.794057
2.828140 -1.721560 -0.764384
3.221150 -1.961570 -0.733088
3.672170 -2.237980 -0.681116
4.231760 -2.581050 -0.608616
2.536380 -1.554900 -0.797163
2.812140 -1.725310 -0.761684
3.200890 -1.964590 -0.730035
3.708100 -2.277670 -0.689250
4.226110 -2.597890 -0.609103
2.524360 -1.559690 -0.795092
2.812730 -1.739210 -0.763484
3.207370 -1.984010 -0.733088
3.656460 -2.263570 -0.681116
4.244010 -2.629350 -0.613003
2.523820 -1.571550 -0.796645
2.790110 -1.738720 -0.758985
3.183770 -1.984810 -0.729272
3.648530 -2.276320 -0.681116
4.217970 -2.633630 -0.610565
2.518320 -1.580350 -0.796645
2.790620 -1.752590 -0.760784
3.176820 -1.995910 -0.729272
3.674010 -2.310070 -0.687373
4.225550 -2.658910 -0.613003
