2.21741 -8.87375 0.159655
0.830429 -3.32572 -0.791378
0.996676 -3.99448 -0.800253
4.48359 -17.9827 1.62145
1.1934 -4.79004 -0.78186
3.64469 -14.6398 1.85241
1.52826 -6.14322 -0.777283
3.19192 -12.8403 2.0956
2.1615 -8.69514 -0.783879
2.90459 -11.6931 2.34199
2.19742 -8.85284 -0.478037
2.44277 -9.84867 2.34264
2.19123 -8.84112 -0.158991
2.09636 -8.46465 2.33662
0.715825 -2.90556 -0.801821
0.817418 -3.32292 -0.790028
4.41984 -17.9944 1.6211
1.18044 -4.80953 -0.784363
3.59546 -14.6602 1.85339
1.50681 -6.14852 -0.777283
3.14708 -12.8513 2.0956
2.1226 -8.6678 -0.780741
2.86609 -11.7127 2.3439
2.18263 -8.92642 -0.481596
2.40745 -9.85335 2.34174
2.16273 -8.85843 -0.159166
2.07 -8.48505 2.34024
0.707501 -2.91555 -0.803892
2.16248 -8.91817 0.160178
0.80352 -3.31629 -0.787779
4.35231 -17.9903 1.61935
1.16272 -4.80978 -0.783737
3.54194 -14.663 1.85217
1.47881 -6.12672 -0.77387
3.09665 -12.8392 2.09184
2.10635 -8.73326 -0.785971
2.82289 -11.7131 2.34199
2.158 -8.96117 -0.483061
2.37213 -9.8579 2.34084
2.12946 -8.8562 -0.158991
2.03947 -8.48847 2.33921
0.694625 -2.90673 -0.800786
2.14805 -8.99568 0.161435
0.793296 -3.32476 -0.789128
0.954792 -4.0047 -0.800253
4.28487 -17.986 1.61761
1.14958 -4.82918 -0.78624
3.49486 -14.6926 1.85436
1.46385 -6.15889 -0.777283
3.04679 -12.8288 2.0884
2.08598 -8.78321 -0.789805
2.78742 -11.7458 2.34657
2.13409 -8.99974 -0.484736
2.33636 -9.86044 2.33949
2.09669 -8.85579 -0.158852
2.00849 -8.4899 2.33765
0.682705 -2.90161 -0.798716
0.779903 -3.31992 -0.787329
0.940807 -4.00801 -0.800253
4.21752 -17.9815 1.61587
1.13272 -4.83316 -0.78624
3.44039 -14.6912 1.85266
1.43962 -6.15236 -0.77582
2.89666 -12.3791 2.01362
2.03988 -8.72447 -0.783879
2.74998 -11.7708 2.34962
2.09902 -8.99158 -0.483898
2.30503 -9.88182 2.34264
2.07003 -8.87438 -0.159061
1.97945 -8.49275 2.33662
0.674316 -2.91151 -0.800786
0.769328 -3.32439 -0.787779
0.926812 -4.01127 -0.800253
4.15248 -17.9864 1.615
1.11224 -4.81764 -0.783111
3.39344 -14.7103 1.85363
1.41565 -6.14163 -0.77387
2.85565 -12.3988 2.01519
2.00227 -8.70048 -0.78109
2.70565 -11.7569 2.34504
2.09157 -9.09581 -0.489132
2.2705 -9.88181 2.34084
2.04575 -8.91079 -0.159585
1.94979 -8.49961 2.33662
0.664228 -2.91184 -0.800269
0.754258 -3.31185 -0.784179
0.913504 -4.01432 -0.800253
4.09105 -17.9923 1.6143
1.09717 -4.8292 -0.784363
3.34031 -14.7143 1.85266
1.40123 -6.1775 -0.77777
2.81934 -12.4395 2.0202
1.98245 -8.75405 -0.785273
2.66763 -11.7797 2.34771
2.06422 -9.12254 -0.490179
2.23427 -9.88207 2.33904
2.02565 -8.96664 -0.160457
1.92096 -8.51013 2.33765
0.655664 -2.92368 -0.802857
0.744824 -3.32397 -0.786429
3.989 -17.8458 1.59983
1.08118 -4.8409 -0.785614
3.28849 -14.7239 1.85241
1.3762 -6.16686 -0.77582
2.76601 -12.4049 2.013
1.94581 -8.73369 -0.782833
2.62614 -11.797 2.34924
2.05939 -9.25872 -0.497087
2.19931 -9.8959 2.34039
1.89334 -8.52621 2.34024
0.642542 -2.91275 -0.799233
0.737246 -3.34761 -0.791378
0.884755 -4.02075 -0.800253
3.92583 -17.8557 1.59948
1.06428 -4.84465 -0.785614
3.23961 -14.7592 1.85534
1.35358 -6.17186 -0.77582
2.71884 -12.4073 2.01175
1.90337 -8.68594 -0.777952
2.58872 -11.8234 2.35268
2.07913 -9.50388 -0.509857
2.16433 -9.90161 2.33994
1.86208 -8.5331 2.34024
0.630732 -2.90742 -0.797163
0.724318 -3.34445 -0.790028
3.88872 -17.9708 0.96361
0.870715 -4.02382 -0.800253
3.87148 -17.9063 1.60279
1.04736 -4.84833 -0.785614
2.76883 -12.828 1.61136
1.32868 -6.16103 -0.77387
2.66511 -12.3684 2.00393
1.87556 -8.70421 -0.778998
2.54661 -11.8285 2.35191
2.13139 -9.91673 2.34174
1.82701 -8.51499 2.33351
0.6234 -2.92283 -0.800786
0.708987 -3.32981 -0.785979
3.8395 -18.0325 0.966227
0.856664 -4.02683 -0.800253
3.83297 -18.0327 1.6129
1.02469 -4.82491 -0.781234
2.71786 -12.8085 1.6077
1.31046 -6.18116 -0.77582
2.6208 -12.3617 2.00142
1.84021 -8.68732 -0.776906
2.50531 -11.8373 2.35191
2.09999 -9.93936 2.34534
1.80195 -8.53612 2.33765
0.613194 -2.92499 -0.800786
0.698341 -3.33405 -0.786429
3.82726 -18.2882 0.979206
0.842602 -4.0298 -0.800253
3.75778 -17.9875 1.60767
1.01353 -4.85148 -0.784988
3.08746 -14.7917 1.85534
1.28429 -6.15827 -0.772408
2.57683 -12.3669 2.0008
1.81231 -8.70539 -0.777952
2.46684 -11.8494 2.35268
2.06543 -9.93864 2.34354
1.77372 -8.54992 2.33972
0.603881 -2.9289 -0.801304
0.685913 -3.33265 -0.785529
3.8165 -18.5597 0.993023
0.829234 -4.03257 -0.800253
3.69611 -17.9901 1.6068
0.993409 -4.83951 -0.782485
3.0382 -14.8141 1.8568
1.26677 -6.18216 -0.774845
2.53761 -12.3952 2.00393
1.78663 -8.72697 -0.779347
2.429 -11.8753 2.35611
2.02995 -9.94197 2.34264
1.74463 -8.55985 2.34076
0.592503 -2.92531 -0.799751
0.674275 -3.33502 -0.785529
3.80706 -18.8469 1.00768
0.815153 -4.03544 -0.800253
3.63014 -17.9873 1.60541
0.975729 -4.83908 -0.78186
2.99039 -14.8441 1.85924
1.2444 -6.18265 -0.774358
2.49355 -12.4001 2.0033
1.74987 -8.7019 -0.776558
2.38599 -11.876 2.35458
1.99638 -9.95473 2.34399
1.71474 -8.56589 2.34076
0.582288 -2.92736 -0.799751
0.667184 -3.36029 -0.790928
3.74319 -18.8699 1.0082
0.801062 -4.03826 -0.800253
3.5619 -17.9725 1.60297
0.962669 -4.86183 -0.784988
2.93741 -14.8486 1.85851
1.21973 -6.17138 -0.772408
2.44642 -12.3894 2.00017
1.7218 -8.71968 -0.777604
2.3449 -11.8861 2.35496
1.96237 -9.96546 2.34489
1.6826 -8.56045 2.33765
0.572807 -2.93317 -0.800786
0.652468 -3.3473 -0.787329
5.00666 -25.7091 1.37267
3.49686 -17.973 1.60192
0.944183 -4.8574 -0.783737
2.88518 -14.8568 1.85826
1.20045 -6.18729 -0.77387
2.39865 -12.3746 1.99642
1.68908 -8.7139 -0.776558
2.30302 -11.8923 2.35458
1.92868 -9.97799 2.34624
1.6538 -8.57196 2.33921
0.561474 -2.92946 -0.799233
5.00559 -26.141 0.464583
0.637484 -3.33233 -0.78328
4.90863 -25.6833 1.37036
0.77285 -4.04375 -0.800253
3.43373 -17.9832 1.60175
0.929444 -4.87231 -0.785614
2.83181 -14.859 1.85729
1.18033 -6.19924 -0.774845
2.35138 -12.3615 1.99298
1.65939 -8.72366 -0.776906
2.26296 -11.908 2.35611
2.12383 -11.1865 -0.596735
1.89457 -9.98849 2.34714
1.62423 -8.57958 2.33972
0.551245 -2.9314 -0.799233
0.626567 -3.33836 -0.784179
4.81601 -25.6845 1.36953
0.75873 -4.04643 -0.800253
3.36983 -17.9892 1.60123
0.909523 -4.85999 -0.783111
2.78066 -14.8727 1.85778
1.15504 -6.18381 -0.772408
2.30495 -12.3522 1.99016
1.63113 -8.74115 -0.777952
2.22138 -11.9158 2.35611
2.13962 -11.4884 -0.612435
1.85933 -9.99312 2.34669
2.07536 -11.165 -0.198224
1.59463 -8.5871 2.34024
0.54241 -2.9409 -0.801304
0.615263 -3.34245 -0.784629
4.72575 -25.6729 1.36806
0.744601 -4.04905 -0.800253
3.30558 -17.993 1.60053
0.888274 -4.83982 -0.779357
2.72729 -14.8745 1.8568
1.13452 -6.18761 -0.772408
2.2622 -12.35 1.9886
1.59845 -8.73503 -0.776906
2.18189 -11.9351 2.3584
2.10669 -11.5351 -0.614529
1.82478 -9.99157 2.34489
1.56718 -8.59804 2.34179
0.530246 -2.92938 -0.79768
0.607641 -3.36365 -0.789128
3.94006 -21.8106 1.16154
0.73117 -4.0515 -0.800253
3.24307 -17.9882 1.59913
0.87432 -4.85441 -0.781234
2.68006 -14.8952 1.85826
1.114 -6.19134 -0.772408
2.21844 -12.3419 1.98609
1.56771 -8.73048 -0.776035
2.14161 -11.9384 2.35764
2.09062 -11.6659 -0.621123
1.79267 -10.0033 2.34624
1.53798 -8.59938 2.34076
0.520529 -2.93112 -0.79768
0.594102 -3.35221 -0.785979
3.86771 -21.8235 1.16154
0.71773 -4.0539 -0.800253
3.18479 -18.0067 1.59983
0.860968 -4.87284 -0.783737
2.62858 -14.8922 1.8568
1.09346 -6.195 -0.772408
2.17887 -12.357 1.98734
1.54048 -8.74544 -0.776906
2.10167 -11.9435 2.35725
1.7605 -10.015 2.34759
3.83015 -21.8109 -0.386536
1.50879 -8.60063 2.33972
0.51379 -2.94996 -0.802339
3.79588 -21.8169 0.386536
0.581981 -3.3484 -0.784629
3.79053 -21.8087 1.16008
0.704283 -4.05626 -0.800253
3.12676 -18.027 1.6007
0.840082 -4.84842 -0.779357
2.21455 -12.7942 1.59429
1.07291 -6.19859 -0.772408
2.13754 -12.3622 1.98703
1.5108 -8.74657 -0.776558
2.06472 -11.9659 2.36031
2.60183 -15.0944 -0.802729
1.72728 -10.0208 2.34759
3.7595 -21.8333 -0.38671
1.48288 -8.62082 2.34387
0.502974 -2.95182 -0.802339
3.71556 -21.8287 0.386501
0.571338 -3.36012 -0.786879
3.70844 -21.8329 1.1606
0.689411 -4.05881 -0.800253
3.062 -18.0462 1.6014
0.828909 -4.89042 -0.785614
2.52753 -14.9278 1.859
1.0491 -6.20266 -0.772408
2.08874 -12.3625 1.98578
1.47806 -8.74812 -0.776209
2.02019 -11.9695 2.35954
2.54649 -15.1038 -0.802729
1.68782 -10.0215 2.34624
3.68459 -21.9008 -0.387653
1.44976 -8.62645 2.34387
0.492032 -2.94975 -0.801304
0.559286 -3.36017 -0.786429
3.6892 -22.1885 1.17882
0.67524 -4.06119 -0.800253
2.99801 -18.0508 1.60088
0.807306 -4.866 -0.781234
2.47411 -14.9287 1.85802
1.0242 -6.1867 -0.769971
2.04558 -12.3697 1.98578
1.44687 -8.7493 -0.77586
1.98032 -11.9881 2.36183
2.49375 -15.1126 -0.802729
1.65378 -10.0331 2.34759
3.67537 -22.322 -0.394878
1.41776 -8.62002 2.34076
0.479243 -2.9362 -0.797163
3.66347 -22.4698 0.397391
0.547553 -3.3621 -0.786429
3.681 -22.6271 1.20142
0.66106 -4.06352 -0.800253
2.93338 -18.0514 1.60001
0.792848 -4.88439 -0.783737
2.42294 -14.9432 1.85875
1.00133 -6.1824 -0.768996
2.02826 -12.5367 2.01143
1.41759 -8.76216 -0.776558
1.93752 -11.9891 2.36069
2.44098 -15.1212 -0.802729
1.61875 -10.0389 2.34759
1.38766 -8.62492 2.34076
0.470513 -2.94739 -0.799751
4.10648 -25.7527 0.455194
0.532136 -3.3409 -0.78103
4.08339 -25.6655 1.36199
0.646871 -4.06581 -0.800253
2.87317 -18.0792 1.60157
0.773317 -4.87152 -0.781234
2.36952 -14.9437 1.85778
0.985955 -6.22507 -0.77387
2.02091 -12.7739 2.04835
1.38389 -8.74738 -0.774815
1.89597 -11.9978 2.36107
2.38818 -15.1297 -0.802729
1.584 -10.0464 2.34804
1.35875 -8.63734 2.34283
0.459924 -2.94711 -0.799233
4.01594 -25.7629 0.455124
0.522869 -3.35814 -0.784629
3.99518 -25.6592 1.36094
0.632675 -4.06804 -0.800253
2.81402 -18.1147 1.60384
0.754489 -4.86248 -0.779357
2.31734 -14.9519 1.85778
0.960575 -6.20494 -0.770946
1.98186 -12.802 2.05179
1.35395 -8.75609 -0.775163
1.85497 -12.0101 2.36222
2.33536 -15.1379 -0.802729
1.55011 -10.0595 2.34984
1.32951 -8.63798 2.34179
0.450216 -2.95251 -0.800269
0.509676 -3.34637 -0.78148
3.90259 -25.6532 1.3599
0.618471 -4.07022 -0.800253
2.75137 -18.1284 1.60419
0.743103 -4.8962 -0.784363
2.26805 -14.9614 1.85802
0.93821 -6.19631 -0.769483
1.93716 -12.8089 2.05179
1.32159 -8.74895 -0.774117
1.81661 -12.0259 2.36412
2.28514 -15.1456 -0.802729
1.515 -10.0531 2.34714
1.30165 -8.65785 2.34594
0.439853 -2.95017 -0.799233
0.502579 -3.37897 -0.788678
3.8142 -25.6746 1.36032
0.60497 -4.07225 -0.800253
2.6927 -18.1472 1.60506
0.721954 -4.87141 -0.779982
2.2161 -14.9712 1.85826
0.915995 -6.19562 -0.768996
1.89215 -12.8136 2.05148
1.29315 -8.75722 -0.774466
1.77662 -12.0458 2.36679
1.48132 -10.0679 2.34939
1.2703 -8.6547 2.34387
0.428996 -2.94786 -0.798198
0.488542 -3.36528 -0.785079
3.71882 -25.6482 1.35822
0.590751 -4.07434 -0.800253
2.62705 -18.1408 1.60367
0.704945 -4.8739 -0.779982
2.16553 -14.9906 1.85973
0.894929 -6.20271 -0.769483
1.84403 -12.7967 2.04773
1.26201 -8.75774 -0.774117
1.73484 -12.0539 2.36718
1.44616 -10.073 2.34939
1.23899 -8.65143 2.34179
0.41816 -2.94552 -0.797163
0.476245 -3.3631 -0.784179
3.6315 -25.6769 1.35906
0.576526 -4.07638 -0.800253
2.5651 -18.1597 1.60454
0.689031 -4.88415 -0.781234
2.11097 -14.9824 1.85778
0.873825 -6.20973 -0.769971
1.79852 -12.7972 2.04679
1.23199 -8.76604 -0.774466
1.69248 -12.0579 2.36679
1.41207 -10.0857 2.35119
1.20985 -8.66335 2.34387
0.409465 -2.95844 -0.800269
0.46397 -3.36088 -0.78328
3.54349 -25.7013 1.35969
0.562292 -4.07836 -0.800253
2.50116 -18.1646 1.60419
0.670902 -4.8787 -0.779982
2.05731 -14.9798 1.85656
0.850526 -6.20094 -0.768508
1.75545 -12.8151 2.04867
1.20084 -8.76634 -0.774117
1.64905 -12.054 2.36489
1.37554 -10.081 2.34894
1.1809 -8.67709 2.34645
0.398619 -2.95602 -0.799233
0.453794 -3.37407 -0.785979
3.44897 -25.6779 1.3578
2.43721 -18.1692 1.60384
0.654917 -4.88884 -0.781234
2.00501 -14.9869 1.85656
0.828875 -6.20387 -0.768508
1.70861 -12.8055 2.04616
1.17023 -8.77048 -0.774117
1.60826 -12.0694 2.36679
1.34034 -10.0857 2.34894
1.15187 -8.69074 2.34904
0.387041 -2.94782 -0.796645
0.44176 -3.3737 -0.785529
0.524643 -4.01211 -0.786515
2.37661 -18.1994 1.60576
0.636826 -4.88327 -0.779982
1.95499 -15.0115 1.85875
0.807215 -6.20673 -0.768508
1.5942 -12.2746 1.96044
1.13961 -8.77451 -0.774117
1.56865 -12.0944 2.37061
1.58161 -12.2111 -0.645302
1.30663 -10.1019 2.35164
1.57492 -12.1928 -0.214595
1.12054 -8.68705 2.34697
0.375769 -2.94149 -0.794574
1.55678 -12.2032 0.214734
0.428996 -3.36749 -0.783729
1.55239 -12.2028 0.644674
0.519554 -4.08403 -0.800253
1.55226 -12.2187 1.07759
0.616296 -4.85802 -0.775602
1.5503 -12.2376 1.51459
0.784547 -6.20163 -0.767533
1.5454 -12.2331 1.95293
1.10748 -8.76657 -0.773071
1.5274 -12.1076 2.37214
1.54397 -12.2562 -0.647396
1.27306 -10.1199 2.35479
1.5306 -12.1844 -0.21435
1.08925 -8.68324 2.3449
0.366214 -2.94853 -0.796127
1.51392 -12.2066 0.2147
0.417718 -3.37283 -0.784629
1.51003 -12.2101 0.644779
0.505295 -4.08582 -0.800253
1.51106 -12.236 1.07864
0.602719 -4.88759 -0.779982
1.50588 -12.2291 1.51289
0.766287 -6.23191 -0.770946
1.5022 -12.2345 1.9523
1.07492 -8.75456 -0.771677
1.48656 -12.1246 2.37443
1.49632 -12.2218 -0.645302
1.2382 -10.1282 2.35569
1.48976 -12.2035 -0.214595
1.05893 -8.68699 2.3449
0.354763 -2.9402 -0.793539
1.47274 -12.2237 0.214909
0.404313 -3.36073 -0.78148
1.46645 -12.2074 0.64436
0.49103 -4.08756 -0.800253
1.46763 -12.2352 1.07812
0.584245 -4.8779 -0.778105
1.46247 -12.2284 1.51215
0.740292 -6.19907 -0.766558
1.45949 -12.2396 1.9523
1.04294 -8.74639 -0.770631
1.44655 -12.1492 2.37824
1.4546 -12.2349 -0.645721
1.20284 -10.1325 2.35569
1.44809 -12.2166 -0.214734
1.02951 -8.6983 2.34697
0.357531 -3.05271 -0.823562
1.42797 -12.2109 0.214595
0.393483 -3.36986 -0.78328
1.42244 -12.2005 0.643732
0.476759 -4.08925 -0.800253
1.42468 -12.2383 1.07794
0.570408 -4.90738 -0.782485
1.41932 -12.2295 1.51167
0.718648 -6.20162 -0.766558
1.41448 -12.225 1.94917
1.01332 -8.7579 -0.771328
1.40706 -12.1795 2.3832
1.40936 -12.2181 -0.64457
1.16657 -10.1289 2.35389
1.40453 -12.2136 -0.214595
0.998703 -8.698 2.34594
1.38556 -12.2178 0.21463
0.382156 -3.37509 -0.784179
1.38242 -12.2091 0.643942
0.462482 -4.09089 -0.800253
1.3815 -12.2392 1.07759
0.551061 -4.88971 -0.779357
1.37663 -12.2343 1.51167
0.697883 -6.21198 -0.767533
1.37217 -12.214 1.94667
0.982524 -8.7594 -0.771154
1.36629 -12.2 2.38626
1.36648 -12.221 -0.644465
1.13294 -10.1484 2.35749
1.36269 -12.2063 -0.214385
0.97071 -8.70895 2.34801
1.3446 -12.2184 0.21456
0.370749 -3.3744 -0.783729
1.33914 -12.2079 0.643628
0.448199 -4.09247 -0.800253
1.33682 -12.2262 1.07602
0.534414 -4.88758 -0.778731
1.33777 -12.2546 1.51362
0.676849 -6.21031 -0.767046
1.3415 -12.3286 1.96419
0.950006 -8.74495 -0.769585
1.32286 -12.1771 2.38091
1.3253 -12.2195 -0.644151
1.09991 -10.1579 2.35884
1.3205 -12.215 -0.214455
0.939474 -8.7046 2.34594
1.30872 -12.2866 0.215677
0.361647 -3.40086 -0.789578
1.31739 -12.4091 0.65399
0.434626 -4.09394 -0.800253
1.32441 -12.496 1.09938
0.514856 -4.86585 -0.774976
1.32856 -12.577 1.55286
0.658498 -6.24422 -0.770946
1.33403 -12.6712 2.018
0.91989 -8.75218 -0.769934
1.28055 -12.1836 2.3813
1.06587 -10.1752 2.36199
1.30572 -12.486 -0.219132
0.908883 -8.7059 2.34542
1.29983 -12.6213 0.221471
0.351767 -3.42149 -0.794077
1.30751 -12.7395 0.671156
0.419617 -4.0955 -0.800253
1.31327 -12.8397 1.12919
0.499025 -4.88735 -0.778105
1.31711 -12.8996 1.5921
0.633477 -6.21488 -0.767046
1.28419 -12.6207 2.00924
0.888127 -8.74344 -0.768888
1.23648 -12.1941 2.38244
1.29435 -12.787 -0.673564
1.02622 -10.1558 2.35659
1.29912 -12.8566 -0.225555
0.877907 -8.70326 2.34387
1.28419 -12.9344 0.226881
0.344221 -3.47318 -0.805775
2.59797 -26.2134 1.38052
1.80554 -18.2829 1.60733
0.48235 -4.893 -0.778731
1.48464 -15.0873 1.86143
0.613023 -6.24087 -0.769971
1.24071 -12.631 2.01018
0.858767 -8.75838 -0.769934
1.1941 -12.2003 2.38282
0.990759 -10.1593 2.35659
0.848083 -8.71204 2.34542
2.50607 -26.2184 1.38031
0.391016 -4.09833 -0.800253
1.73793 -18.2494 1.60384
0.466121 -4.89457 -0.778731
1.44005 -15.1494 1.8685
0.588198 -6.19939 -0.764608
1.2117 -12.7946 2.03553
0.826689 -8.74546 -0.768539
1.15493 -12.2178 2.38549
0.95743 -10.1664 2.35749
0.817126 -8.70918 2.34387
2.41875 -26.2225 1.3801
0.377423 -4.09961 -0.800253
1.67923 -18.2749 1.60558
0.449394 -4.9001 -0.779357
1.39259 -15.2137 1.87581
0.570168 -6.24095 -0.769483
1.16764 -12.7808 2.03271
0.797322 -8.74418 -0.768191
1.11067 -12.2042 2.38206
0.922111 -10.1716 2.35794
0.788588 -8.71569 2.3449
2.32578 -26.2149 1.37926
1.61437 -18.2688 1.60454
0.432098 -4.88976 -0.777479
1.34352 -15.234 1.87776
0.548424 -6.23094 -0.768021
1.12354 -12.7907 2.03365
0.765403 -8.73104 -0.766796
1.06968 -12.2019 2.38091
0.889224 -10.1843 2.36019
0.758997 -8.72801 2.34749
2.22969 -26.2233 1.37926
1.55396 -18.314 1.60802
0.413507 -4.88343 -0.776228
1.28918 -15.2566 1.87996
0.522247 -6.19334 -0.763146
1.07632 -12.7908 2.03302
0.734922 -8.73365 -0.766796
1.02413 -12.196 2.37901
0.851565 -10.1837 2.35929
0.727484 -8.73651 2.34904
2.13651 -26.211 1.37822
1.49132 -18.3352 1.60942
0.395179 -4.8691 -0.773725
1.23528 -15.2531 1.87898
0.500306 -6.19117 -0.762658
1.03008 -12.7748 2.02989
0.70443 -8.73617 -0.766796
0.979817 -12.178 2.37481
0.816013 -10.1866 2.35929
0.697444 -8.74477 2.35059
2.04516 -26.2203 1.37832
1.97146 -25.3323 2.22299
0.380322 -4.89802 -0.778105
1.18218 -15.2593 1.87923
0.479608 -6.20476 -0.764121
0.985177 -12.7744 2.02927
0.673931 -8.73857 -0.766796
0.938808 -12.2009 2.37863
0.780898 -10.1952 2.36064
0.666474 -8.74137 2.34904
1.92473 -25.7182 0.450167
1.95303 -26.2193 1.3779
0.305817 -4.10557 -0.800253
1.87711 -25.2596 2.21602
0.362347 -4.8875 -0.776228
1.12993 -15.2772 1.88093
0.459992 -6.23411 -0.767533
0.940579 -12.7777 2.02927
0.641814 -8.71902 -0.764879
0.895783 -12.1982 2.37748
0.744309 -10.1842 2.35749
0.635537 -8.73787 2.34749
1.83424 -25.7147 0.449993
1.86636 -26.2296 1.37811
1.78865 -25.262 2.21567
0.346118 -4.90055 -0.778105
1.07632 -15.2771 1.88044
0.439342 -6.25152 -0.769483
0.897925 -12.7768 2.02864
0.610122 -8.70331 -0.76331
0.852375 -12.1895 2.37519
0.709567 -10.1984 2.36019
0.60736 -8.75149 2.35059
1.77344 -26.216 1.37706
1.70607 -25.3516 2.22299
0.329865 -4.90168 -0.778105
1.02565 -15.2806 1.88044
0.417547 -6.23709 -0.767533
0.853583 -12.7838 2.02927
0.580798 -8.7213 -0.764704
0.812863 -12.206 2.37786
0.675358 -10.1949 2.35884
0.577443 -8.76319 2.35318
1.66958 -25.8883 0.45282
1.68064 -26.2021 1.37602
1.622 -25.3571 2.22299
0.311496 -4.88308 -0.774976
0.973314 -15.2999 1.88239
0.395523 -6.23455 -0.767046
0.808207 -12.7749 2.02739
0.549974 -8.7173 -0.764182
0.769631 -12.199 2.37595
0.639157 -10.1875 2.35659
1.60826 -25.7058 -0.449574
0.546609 -8.7613 2.35215
1.56813 -25.7123 0.449644
1.58892 -26.2038 1.37581
1.52905 -25.3629 2.22299
0.294071 -4.89208 -0.776228
0.919903 -15.3032 1.88239
0.373045 -6.22401 -0.765583
0.762429 -12.7579 2.02426
0.518949 -8.70923 -0.76331
0.724799 -12.1997 2.37557
0.601929 -10.1917 2.35704
1.52407 -25.8051 -0.451215
0.516024 -8.76315 2.35215
1.47491 -25.7358 0.449958
1.49779 -26.2152 1.37612
1.4405 -25.3681 2.22299
0.276546 -4.88519 -0.774976
0.864254 -15.3144 1.88337
0.351122 -6.24119 -0.767533
0.718114 -12.7645 2.02489
0.48888 -8.71695 -0.763833
0.682429 -12.2061 2.37634
0.567753 -10.219 2.36289
1.43309 -25.7943 -0.450935
0.485003 -8.75719 2.35008
1.3915 -25.7765 0.450586
1.40563 -26.2083 1.37549
1.35195 -25.373 2.22299
0.260765 -4.89397 -0.776228
0.81378 -15.3232 1.8841
0.329584 -6.22646 -0.765583
0.673867 -12.7728 2.02583
0.457716 -8.70468 -0.762613
0.641432 -12.1985 2.37443
0.53295 -10.2033 2.35884
1.34159 -25.7712 -0.450447
0.454633 -8.76268 2.35111
1.31734 -26.0948 0.456066
1.31374 -26.2051 1.37508
0.206136 -4.11178 -0.800253
0.24368 -4.89485 -0.776228
0.760584 -15.3319 1.88483
0.308632 -6.24343 -0.767533
0.629178 -12.7731 2.02551
0.427915 -8.71816 -0.763659
0.599619 -12.2164 2.37748
0.497993 -10.2188 2.36199
1.25046 -25.7517 -0.450028
0.424602 -8.7758 2.35422
1.20663 -25.6818 0.448771
1.22151 -26.1936 1.37424
0.225374 -4.88782 -0.774976
0.708067 -15.3562 1.88751
0.285015 -6.20481 -0.762658
0.584228 -12.7673 2.02426
0.398388 -8.73951 -0.765402
0.555461 -12.2322 2.38015
0.459659 -10.201 2.35749
1.15975 -25.738 -0.449714
0.394313 -8.78494 2.35629
1.11301 -25.698 0.448981
1.1299 -26.1937 1.37403
1.12118 -26.2038 2.29464
0.208984 -4.90436 -0.777479
0.651778 -15.3587 1.88751
0.263611 -6.23755 -0.766558
0.539072 -12.7555 2.02207
0.366706 -8.71298 -0.762961
0.513418 -12.2498 2.3832
0.424453 -10.2123 2.35974
1.06965 -25.7359 -0.449609
0.363486 -8.78241 2.35525
1.02787 -25.7035 0.449015
1.03814 -26.1895 1.37361
1.03025 -26.2215 2.29586
0.191245 -4.86752 -0.771535
0.583077 -14.9066 1.8317
0.241845 -6.21062 -0.763146
0.494392 -12.7533 2.02145
0.335828 -8.70226 -0.761916
0.473096 -12.2593 2.38473
0.391181 -10.2293 2.36334
0.722632 -18.9834 -0.331596
0.332241 -8.76818 2.35111
0.938504 -25.717 0.44919
0.946719 -26.1929 1.37361
0.942286 -26.1969 2.29342
0.174748 -4.88198 -0.773725
0.530544 -14.8946 1.82999
0.220867 -6.23126 -0.765583
0.450151 -12.7629 2.0227
0.307391 -8.71527 -0.762961
0.429474 -12.2373 2.38015
0.35527 -10.2247 2.36199
0.653046 -18.8898 -0.32992
0.301766 -8.77315 2.35215
0.850048 -25.7601 0.449888
0.855022 -26.1881 1.37319
0.851223 -26.212 2.29446
0.15745 -4.87466 -0.772473
0.478676 -14.9004 1.83048
0.198988 -6.22803 -0.765096
0.405784 -12.7703 2.02364
0.276586 -8.70434 -0.761916
0.387066 -12.2485 2.38206
0.319636 -10.2278 2.36244
0.271678 -8.79152 2.35681
0.767705 -26.1748 1.37235
0.759262 -26.1989 2.29307
0.14032 -4.87123 -0.771848
0.426945 -14.9119 1.8317
0.177766 -6.20881 -0.762658
0.362873 -12.7518 2.02051
0.246201 -8.70525 -0.761916
0.344584 -12.2596 2.38397
0.28588 -10.2347 2.36379
0.523677 -18.8659 -0.329432
0.242895 -8.80589 2.36043
0.6808 -26.1732 1.37214
0.672122 -26.1913 2.2922
0.124468 -4.88352 -0.773725
0.377545 -14.9152 1.83194
0.157779 -6.23318 -0.765583
0.320187 -12.7372 2.018
0.217332 -8.70602 -0.761916
0.304268 -12.2744 2.38664
0.252132 -10.2434 2.36559
0.21313 -8.78348 2.35422
0.589434 -26.1754 1.37214
0.585083 -26.1854 2.2915
0.108623 -4.89971 -0.776228
0.3283 -14.9263 1.83316
0.135586 -6.21384 -0.763146
0.275939 -12.7481 2.01957
0.186599 -8.69079 -0.760521
0.263395 -12.2675 2.38511
0.216292 -10.2403 2.36469
0.39433 -18.825 -0.328664
0.182468 -8.78417 2.35422
0.498215 -26.1853 1.37256
0.489033 -26.1834 2.29115
0.0903719 -4.88427 -0.773725
0.276268 -14.9313 1.83365
0.114405 -6.24207 -0.766558
0.231474 -12.7509 2.01988
0.156046 -8.67944 -0.759475
0.218256 -12.2586 2.3832
0.179472 -10.2819 2.37413
0.328194 -18.8023 -0.328245
0.151739 -8.78089 2.35318
0.402115 -26.179 1.37214
0.397511 -26.177 2.29045
0.0732033 -4.87666 -0.772473
0.221305 -14.9163 1.8317
0.0914093 -6.23451 -0.765583
0.184795 -12.7556 2.02051
0.126153 -8.70782 -0.761916
0.175716 -12.2769 2.38664
0.143173 -10.2533 2.36738
0.259278 -18.8033 -0.328245
0.119711 -8.79297 2.35629
0.310418 -26.1543 1.37078
0.306206 -26.1842 2.29098
0.0565902 -4.91244 -0.778105
0.169123 -14.9071 1.83048
0.0691583 -6.19112 -0.760221
0.140139 -12.7444 2.01863
0.0957129 -8.70422 -0.761567
0.132882 -12.2794 2.38702
0.107359 -10.2518 2.36694
0.193436 -18.7841 -0.327896
0.0889004 -8.78175 2.35318
0.219174 -26.1612 1.3711
0.214673 -26.1692 2.28958
0.0393464 -4.90075 -0.776228
0.117197 -14.9215 1.83218
0.0479438 -6.24293 -0.766558
0.0956648 -12.7467 2.01894
0.0651183 -8.67661 -0.759126
0.0902634 -12.3132 2.39351
0.0716015 -10.256 2.36783
0.0685608 -10.0722 -0.175816
0.0582712 -8.78587 2.35422
0.127872 -26.1658 1.37131
0.123314 -26.1678 2.28941
0.0222039 -4.89296 -0.774976
0.0651098 -14.9218 1.83218
0.026035 -6.21527 -0.763146
0.0511075 -12.7312 2.01644
0.0347597 -8.65886 -0.757558
0.0472046 -12.2938 2.38969
0.0371211 -10.128 -0.530791
0.0358088 -10.2581 2.36828
0.0334479 -10.0864 -0.17606
0.0275779 -8.77829 2.35215
0.0411073 -26.1681 1.37141
0.0365428 -26.172 2.28976
0.00597795 -4.893 -0.774976
0.0156115 -14.9061 1.83023
0.0054275 -6.21929 -0.763633
0.00888855 -12.7313 2.01644
0.00604397 -8.65693 -0.757383
0.00642176 -12.2664 2.38435
0.00179242 -10.266 2.37008
-8.20513e-07 -18.7711 -0.327651
-0.00153203 -8.7822 2.35318
-0.0502058 -26.1501 1.37047
-0.0548332 -26.1819 2.29063
-0.0111014 -4.893 -0.774976
-0.0364323 -14.91 1.83072
-0.0162405 -6.20339 -0.761683
-0.0356226 -12.7569 2.02051
-0.0240957 -8.62901 -0.754943
-0.0364299 -12.2781 2.38664
-0.0340428 -10.2659 2.37008
-0.0655366 -18.775 -0.327721
-0.0322445 -8.79759 2.35732
-0.141451 -26.1437 1.37016
-0.146192 -26.1756 2.2901
-0.0280902 -4.87712 -0.772473
-0.088488 -14.9118 1.83097
-0.0378217 -6.19139 -0.760221
-0.0801046 -12.7488 2.01926
-0.0544055 -8.65875 -0.757558
-0.079338 -12.2858 2.38817
-0.0698776 -10.2657 2.37008
-0.131074 -18.7747 -0.327721
-0.0629262 -8.79356 2.35629
-0.232831 -26.1571 1.37089
-0.237508 -26.169 2.28958
-0.0453703 -4.90465 -0.776854
-0.140691 -14.9272 1.83292
-0.0595472 -6.20313 -0.761683
-0.12447 -12.7346 2.01707
-0.0842785 -8.62265 -0.75442
-0.12244 -12.307 2.39236
-0.10571 -10.2654 2.37008
-0.196609 -18.7741 -0.327721
-0.0935597 -8.7875 2.35474
-0.319473 -26.1482 1.37047
-0.328829 -26.166 2.28941
-0.0624397 -4.90051 -0.776228
-0.192743 -14.9227 1.83243
-0.0813559 -6.21479 -0.763146
-0.166673 -12.7322 2.01675
-0.114165 -8.60637 -0.753026
-0.16545 -12.3105 2.39313
-0.14149 -10.2611 2.36918
-0.258866 -18.7734 -0.327721
-0.122645 -8.78327 2.3537
-0.410749 -26.1469 1.37047
-0.420097 -26.1607 2.28906
-0.0783731 -4.88053 -0.773099
-0.242164 -14.918 1.83194
-0.101769 -6.20258 -0.761683
-0.211083 -12.7296 2.01644
-0.144607 -8.62982 -0.755117
-0.206174 -12.304 2.39198
-0.175849 -10.28 2.37368
-0.324567 -18.7823 -0.327896
-0.153371 -8.78666 2.35474
-0.501938 -26.1413 1.37026
-0.507005 -26.1671 2.28976
-0.0956406 -4.89207 -0.774976
-0.294156 -14.9131 1.83145
-0.123025 -6.18234 -0.759246
-0.255794 -12.7426 2.01863
-0.172545 -8.59543 -0.752154
-0.249438 -12.3189 2.39503
-0.211813 -10.2833 2.37458
-0.390333 -18.7911 -0.32807
-0.183961 -8.7822 2.3537
-0.593001 -26.1314 1.36984
-0.598567 -26.1751 2.29063
-0.112171 -4.86801 -0.771222
-0.346303 -14.9159 1.83194
-0.144325 -6.16996 -0.757784
-0.300085 -12.7337 2.01738
-0.202828 -8.60672 -0.7532
-0.292719 -12.3297 2.39732
-0.247377 -10.2688 2.37143
-0.456606 -18.8176 -0.328559
-0.214804 -8.78923 2.35577
-0.684217 -26.1292 1.36984
-0.689877 -26.1709 2.29045
-0.129791 -4.89129 -0.774976
-0.397414 -14.8789 1.82755
-0.166716 -6.20117 -0.761683
-0.344266 -12.7227 2.01581
-0.232978 -8.60995 -0.753549
-0.335862 -12.3325 2.39809
-0.283436 -10.2757 2.37323
-0.524285 -18.8878 -0.329816
-0.245322 -8.78264 2.35422
-0.775418 -26.1266 1.36984
-0.780576 -26.1464 2.28854
-0.145916 -4.85921 -0.769971
-0.450006 -14.8993 1.83023
-0.187758 -6.18071 -0.759246
-0.388916 -12.7293 2.01707
-0.261936 -8.57324 -0.750411
-0.378847 -12.3293 2.39771
-0.319606 -10.2844 2.37548
-0.590215 -18.8859 -0.329816
-0.276037 -8.78366 2.35474
-0.866881 -26.1317 1.37026
-0.872103 -26.1515 2.28923
-0.163009 -4.86262 -0.770596
-0.502215 -14.9036 1.83097
-0.2096 -6.18795 -0.760221
-0.433346 -12.7279 2.01707
-0.293221 -8.56824 -0.750062
-0.421615 -12.3201 2.39618
-0.356041 -10.2988 2.37908
-0.306359 -8.77299 2.35215
-0.958383 -26.1365 1.37068
-0.967211 -26.1282 2.28749
-0.181124 -4.86989 -0.771848
-0.553127 -14.872 1.82731
-0.230458 -6.16735 -0.757784
-0.47807 -12.7342 2.01832
-0.323277 -8.57114 -0.750411
-0.466991 -12.3243 2.39732
-0.393786 -10.2974 2.37908
-0.337648 -8.78924 2.35681
-1.04577 -26.1511 0.456834
-1.04913 -26.1211 1.37005
-1.05954 -26.1526 2.28993
-0.197961 -4.86528 -0.771222
-0.607307 -14.8619 1.82633
-0.252735 -6.15853 -0.756809
-0.521868 -12.7166 2.01581
-0.353687 -8.58191 -0.751457
-0.511468 -12.3579 2.40419
-0.429323 -10.2862 2.37683
-0.368408 -8.78994 2.35732
-1.13196 -26.1355 0.456625
-1.14083 -26.1292 1.37068
-1.15108 -26.1547 2.29045
-0.214094 -4.86459 -0.771222
-0.273684 -6.16955 -0.758271
-0.566429 -12.7187 2.01644
-0.382217 -8.54877 -0.748668
-0.552095 -12.3483 2.40267
-0.501518 -11.1734 -0.586163
-0.463518 -10.2867 2.37728
-0.398737 -8.78088 2.35525
-1.22346 -26.1374 0.45673
-1.23203 -26.1251 1.37068
-1.23715 -26.1368 2.28923
-0.231261 -4.86776 -0.771848
-0.738331 -15.484 1.90336
-0.294649 -6.15667 -0.756809
-0.61035 -12.7068 2.01488
-0.409799 -8.53154 -0.747273
-0.595194 -12.3463 2.40267
-0.489458 -10.1163 -0.530791
-0.49999 -10.2967 2.37998
-0.491936 -10.0945 -0.176409
-0.429197 -8.77557 2.35422
-1.31409 -26.121 0.45652
-1.32362 -26.1286 1.3711
-1.32787 -26.1224 2.28836
-0.247446 -4.85114 -0.769345
-0.793595 -15.5051 1.90628
-0.317156 -6.17542 -0.759246
-0.65531 -12.7164 2.01675
-0.438756 -8.51414 -0.745879
-0.638188 -12.3422 2.40229
-0.523733 -10.0946 -0.529745
-0.536536 -10.3066 2.38268
-1.36486 -26.1304 -0.45673
-0.460231 -8.78174 2.35629
-1.40547 -26.1202 0.45659
-1.41025 -26.1241 1.3711
-1.41959 -26.1275 2.28923
-0.263733 -4.83842 -0.767468
-0.846628 -15.4824 1.90384
-0.33784 -6.15842 -0.757296
-0.697152 -12.7082 2.01581
-0.468913 -8.52051 -0.746576
-0.681481 -12.3438 2.40305
-0.639149 -11.5405 -0.605736
-0.571862 -10.293 2.37998
-1.45117 -26.1197 -0.456625
-0.489564 -8.78402 2.35732
-1.49266 -26.1254 0.456764
-1.50086 -26.109 1.37057
-1.51216 -26.1463 2.29132
-0.282514 -4.88485 -0.774976
-0.897621 -15.4736 1.90311
-0.357568 -6.14538 -0.755834
-0.741508 -12.7057 2.01581
-0.498186 -8.51087 -0.745879
-0.723559 -12.3611 2.40686
-0.669924 -11.4107 -0.599037
-0.605991 -10.291 2.37998
-1.54481 -26.1564 -0.457358
-0.52068 -8.78997 2.35939
-1.58396 -26.122 0.456799
-1.59223 -26.1076 1.37078
-1.5985 -26.1351 2.2908
-0.298596 -4.86806 -0.772473
-0.952846 -15.4902 1.90555
-0.379507 -6.15202 -0.756809
-0.785611 -12.6991 2.01519
-0.525422 -8.49326 -0.744484
-0.76658 -12.3565 2.40648
-0.705534 -11.3405 -0.595479
-0.64191 -10.2888 2.37998
-1.63386 -26.115 -0.45673
-0.550393 -8.77268 2.35525
-1.67514 -26.1163 0.456799
-1.684 -26.1118 1.37131
-1.68894 -26.1175 2.28976
-0.31482 -4.85516 -0.770596
-1.00769 -15.4986 1.90701
-0.400979 -6.15066 -0.756809
-0.83032 -12.7022 2.01613
-0.555845 -8.5033 -0.74553
-0.808682 -12.3381 2.40343
-0.744329 -11.326 -0.594851
-0.678589 -10.2982 2.38268
-1.72514 -26.1111 -0.456764
-0.581267 -8.77456 2.35629
-1.76615 -26.1083 0.456764
-1.77541 -26.1098 1.37152
-1.7805 -26.1174 2.29028
-0.330957 -4.8422 -0.768719
-1.06151 -15.4911 1.90652
-0.424351 -6.17694 -0.760221
-0.875333 -12.7091 2.01769
-0.584428 -8.48541 -0.744136
-0.85188 -12.3372 2.40381
-0.781515 -11.2895 -0.593071
-0.715343 -10.3074 2.38538
-1.81697 -26.1149 -0.456939
-0.611624 -8.76862 2.35525
-1.85785 -26.11 0.456904
-1.86654 -26.1034 1.37152
-1.8728 -26.1269 2.29167
-0.34899 -4.85678 -0.771222
-1.11557 -15.4873 1.90652
-0.445338 -6.16751 -0.759246
-0.919406 -12.702 2.01707
-0.613182 -8.47139 -0.74309
-0.894797 -12.3322 2.40343
-0.81889 -11.2588 -0.591606
-0.751034 -10.301 2.38448
-1.90885 -26.1184 -0.457113
-0.643357 -8.78185 2.35939
-1.94912 -26.1054 0.456939
-1.95765 -26.0968 1.37152
-1.96429 -26.1242 2.29202
-0.365051 -4.84371 -0.769345
-1.17008 -15.4892 1.90726
-0.465365 -6.14612 -0.756809
-0.963737 -12.6987 2.01707
-0.643049 -8.47318 -0.743438
-0.939626 -12.3524 2.40801
-0.857578 -11.2479 -0.591187
-0.787284 -10.3022 2.38538
-0.674599 -8.78725 2.36146
-2.04102 -26.1084 0.457113
-2.04826 -26.0838 1.3712
-2.05531 -26.1152 2.29185
-0.38382 -4.86604 -0.773099
-1.22554 -15.5028 1.90945
-0.486816 -6.14446 -0.756809
-1.00822 -12.6973 2.01738
-0.671047 -8.45102 -0.741695
-0.982582 -12.3471 2.40763
-0.86873 -10.8924 -0.57266
-0.82324 -10.2994 2.38538
-2.09034 -26.0944 -0.456939
-0.704805 -8.77907 2.35991
-2.13214 -26.1011 0.457113
-2.14044 -26.0904 1.37193
-2.14597 -26.1019 2.29132
-0.400479 -4.86074 -0.772473
-1.28096 -15.5143 1.9114
-0.509898 -6.1625 -0.759246
-1.03588 -12.4929 1.98547
-0.701357 -8.44056 -0.740998
-1.02551 -12.3417 2.40725
-0.85951 -10.3003 2.38628
-0.734961 -8.77078 2.35836
-2.22307 -26.0915 0.457079
-2.23235 -26.0927 1.37246
-2.24247 -26.1038 2.2922
-0.416259 -4.83562 -0.768719
-1.33511 -15.5097 1.9114
-0.527995 -6.12113 -0.754371
-1.08135 -12.5108 1.98891
-0.729096 -8.41821 -0.739255
-1.07074 -12.3378 2.40725
-0.975548 -11.2182 -0.59014
-0.897764 -10.3029 2.38763
-2.27315 -26.0872 -0.457079
-0.76658 -8.77971 2.36146
-2.31992 -26.0971 0.457323
-1.14363 -12.8395 0.675553
-2.33429 -26.1037 2.29289
-0.434546 -4.84987 -0.771222
-1.13901 -12.6873 1.56407
-0.550426 -6.11915 -0.754371
-1.13334 -12.5994 2.00361
-0.758476 -8.41561 -0.739255
-1.11115 -12.3047 2.40152
-1.01524 -11.2207 -0.590454
-0.932492 -10.2861 2.38448
-1.00363 -11.0709 -0.194036
-0.796523 -8.76928 2.35939
-1.1327 -12.28 0.215258
-1.12234 -12.1214 0.637975
-1.13175 -12.1768 1.06992
-0.447701 -4.81694 -0.766216
-1.12936 -12.1281 1.49558
-0.571083 -6.12125 -0.754859
-1.13521 -12.145 1.93197
-0.788591 -8.42085 -0.739952
-1.13676 -12.1387 2.36985
-1.0545 -11.2391 -0.591606
-0.966596 -10.283 2.38448
-1.03871 -11.0295 -0.193373
-0.826948 -8.76452 2.35888
-1.16564 -12.1725 0.213443
-1.16367 -12.1296 0.638603
-1.17041 -12.1551 1.06836
-0.467168 -4.84287 -0.770596
-1.17283 -12.1359 1.49704
-0.592447 -6.11922 -0.754859
-1.17357 -12.1215 1.92884
-0.814588 -8.39836 -0.738209
-1.18045 -12.1483 2.37252
-1.09566 -11.2553 -0.592652
-1.00381 -10.2931 2.38763
-1.06888 -10.9603 -0.192221
-0.856195 -8.76365 2.35939
-1.20265 -12.1347 0.21285
-1.207 -12.1354 0.639127
-1.21125 -12.1351 1.06696
-0.480479 -4.81378 -0.766216
-1.21307 -12.1319 1.49704
-0.613528 -6.12512 -0.755834
-1.21825 -12.1409 1.93259
-0.841507 -8.37167 -0.736117
-1.22093 -12.1463 2.3729
-1.13638 -11.2854 -0.594432
-1.03774 -10.2878 2.38718
-1.1015 -10.9008 -0.191243
-0.887559 -8.7683 2.36146
-1.24561 -12.1364 0.212954
-1.25078 -12.145 0.639859
-1.25393 -12.1548 1.06905
-0.498092 -4.81993 -0.767468
-1.25786 -12.1513 1.49997
-0.635314 -6.12689 -0.756321
-1.26062 -12.1366 1.93259
-0.867206 -8.34902 -0.734374
-1.26149 -12.1244 2.36947
-1.17638 -11.2873 -0.594746
-1.07486 -10.2958 2.38988
-1.13206 -10.8253 -0.189987
-0.919167 -8.77476 2.36405
-1.28776 -12.13 0.212919
-1.29211 -12.1306 0.639336
-1.29635 -12.1504 1.06905
-0.514073 -4.81031 -0.766216
-1.29858 -12.1311 1.49802
-0.656273 -6.12069 -0.755834
-1.30361 -12.138 1.93353
-0.898045 -8.36179 -0.735769
-1.30422 -12.1238 2.37023
-1.21984 -11.3208 -0.596735
-1.10954 -10.2803 2.38718
-1.16618 -10.7875 -0.189394
-0.949375 -8.76765 2.36302
-1.33096 -12.1334 0.213059
-1.33423 -12.1241 0.639231
-1.33789 -12.1378 1.06836
-0.531728 -4.81634 -0.767468
-1.34288 -12.1442 1.50021
-0.678072 -6.12231 -0.756321
-1.34575 -12.1314 1.93322
-0.926789 -8.35464 -0.73542
-1.34784 -12.1309 2.37252
-1.26465 -11.3642 -0.599247
-1.14563 -10.2783 2.38763
-1.20671 -10.8092 -0.189847
-0.980619 -8.77005 2.36457
-1.37488 -12.1425 0.213303
-1.37654 -12.1193 0.639231
-1.38025 -12.1331 1.06836
-0.547643 -4.8066 -0.766216
-1.77169 -15.5259 1.91871
-0.697635 -6.10412 -0.754371
-1.44942 -12.6624 2.01863
-0.952321 -8.31969 -0.732631
-1.4141 -12.3348 2.41335
-1.18106 -10.2704 2.38673
-1.39636 -12.124 -0.213024
-1.01122 -8.76657 2.36457
-3.04324 -26.0629 0.458021
-3.05258 -26.0638 1.37528
-3.05756 -26.067 2.29621
-0.566722 -4.82428 -0.769345
-1.82519 -15.5137 1.91798
-0.717545 -6.08982 -0.752909
-1.495 -12.6691 2.02051
-0.980937 -8.30031 -0.731237
-1.45738 -12.3318 2.41373
-1.21805 -10.2759 2.38898
-3.09422 -26.065 -0.458161
-1.04364 -8.77833 2.36871
-3.13468 -26.0561 0.458091
-3.14497 -26.0649 1.37591
-3.155 -26.0715 2.2976
-0.583925 -4.81825 -0.768719
-1.87909 -15.5053 1.91774
-0.739754 -6.09516 -0.753884
-1.54088 -12.6775 2.0227
-1.0099 -8.29684 -0.731237
-1.5009 -12.3127 2.41106
-1.25618 -10.2752 2.38988
-3.18616 -26.062 -0.4583
-1.07287 -8.76313 2.36561
-3.23139 -26.0544 0.458265
-3.2347 -26.0439 1.37539
-3.24795 -26.0761 2.29899
-0.596828 -4.78482 -0.763713
-1.93541 -15.4943 1.91725
-0.763568 -6.10423 -0.755346
-1.58733 -12.6897 2.02551
-1.03787 -8.28535 -0.730539
-1.54265 -12.2976 2.40915
-1.29155 -10.2669 2.38898
-3.2806 -26.0785 -0.458789
-1.1037 -8.76125 2.36612
-3.3203 -26.0634 0.458614
-3.32661 -26.0403 1.37581
-3.33997 -26.0725 2.29969
-0.615704 -4.80632 -0.767468
-1.98906 -15.5055 1.91944
-0.781277 -6.08197 -0.752909
-1.63036 -12.6743 2.02395
-1.06678 -8.28168 -0.730539
-1.58367 -12.2944 2.40954
-1.32559 -10.2626 2.38898
-3.37033 -26.0569 -0.458614
-1.13725 -8.78033 2.37234
-3.41281 -26.0635 0.458824
-3.42008 -26.0484 1.37685
-3.42693 -26.0653 2.30004
-0.631446 -4.79631 -0.766216
-2.04498 -15.5123 1.92115
-0.802502 -6.07921 -0.752909
-1.67511 -12.6724 2.02457
-1.09424 -8.2781 -0.730539
-1.62607 -12.2849 2.40877
-1.36294 -10.2695 2.39168
-3.46153 -26.047 -0.458649
-1.16611 -8.76291 2.36871
-3.50484 -26.0594 0.458963
-3.51312 -26.0521 1.37769
-3.51869 -26.0591 2.30056
-0.65189 -4.82148 -0.770596
-2.10019 -15.5129 1.92212
-0.822118 -6.06457 -0.751446
-1.7196 -12.6685 2.02489
-1.12099 -8.25843 -0.729145
-1.66762 -12.2694 2.40686
-1.3993 -10.2685 2.39258
-3.55378 -26.0447 -0.458824
-1.19957 -8.77984 2.37441
-3.59578 -26.047 0.458963
-3.60568 -26.0516 1.37832
-3.61045 -26.0525 2.30109
-0.668717 -4.81918 -0.770596
-2.15542 -15.5134 1.9231
-0.844923 -6.07346 -0.752909
-1.76517 -12.6722 2.02645
-1.14953 -8.2525 -0.728971
-1.70962 -12.2577 2.40572
-1.43595 -10.2693 2.39393
-3.64578 -26.04 -0.458963
-1.22806 -8.76029 2.37026
-3.68724 -26.0382 0.459033
-3.69772 -26.0467 1.37874
-3.7039 -26.0575 2.30265
-0.678854 -4.76988 -0.763087
-2.21039 -15.5116 1.92383
-0.864997 -6.06261 -0.751934
-1.81079 -12.6757 2.02802
-1.17692 -8.23857 -0.728099
-1.75323 -12.2575 2.40686
-1.47151 -10.2623 2.39348
-3.74064 -26.0548 -0.459452
-1.26166 -8.77698 2.37596
-3.78041 -26.041 0.459312
-3.78408 -26.0343 1.37874
-3.79799 -26.0661 2.30457
-0.699492 -4.79485 -0.767468
-2.26367 -15.4979 1.9231
-0.886728 -6.06349 -0.752421
-1.85224 -12.6657 2.02739
-1.20683 -8.2423 -0.728796
-1.79629 -12.2532 2.40725
-1.50619 -10.2494 2.39168
-3.82644 -26.0383 -0.459382
-1.29075 -8.77275 2.37596
-3.86939 -26.0461 0.459627
-3.87729 -26.0368 1.37958
-3.88866 -26.0508 2.3044
-0.717138 -4.80422 -0.769345
-2.31563 -15.4943 1.92359
-0.905655 -6.05266 -0.751446
-1.89615 -12.6572 2.02708
-1.23382 -8.22621 -0.72775
-1.83662 -12.2453 2.40686
-1.54104 -10.2502 2.39303
-3.91909 -26.0367 -0.459592
-1.32252 -8.77583 2.37803
-3.96118 -26.0384 0.459731
-3.96935 -26.031 1.37999
-3.97563 -26.0417 2.30475
-0.733307 -4.79778 -0.768719
-2.37151 -15.4979 1.92505
-0.926176 -6.04554 -0.750959
-1.94152 -12.6583 2.02833
-1.26472 -8.24571 -0.729842
-1.87846 -12.233 2.40572
-1.57652 -10.2428 2.39258
-4.00721 -26.0051 -0.459278
-1.34961 -8.74825 2.37182
-4.05328 -26.0323 0.459871
-4.07004 -26.0801 1.38334
-4.06989 -26.0493 2.30666
-0.748829 -4.78739 -0.767468
-2.42651 -15.4954 1.92578
-0.943892 -6.02069 -0.748278
-1.98447 -12.6437 2.02708
-1.29287 -8.23731 -0.729494
-1.91963 -12.2166 2.40381
-1.61347 -10.2449 2.39438
-0.598503 -3.79164 1.02855
-0.541618 -3.39662 -0.794077
-0.599347 -3.74185 0.465297
-0.593445 -3.69262 0.726982
-0.594861 -3.69731 -0.19626
-0.595605 -3.69782 0.864712
-0.597197 -3.70359 -0.0654814
-0.593262 -3.6751 0.997489
-0.599157 -3.67896 0.0650626
-0.553471 -3.3947 -0.794077
-0.599709 -3.67427 0.195108
-0.601833 -3.68728 -0.726219
-0.595353 -3.64358 0.322999
-0.589943 -3.60652 -0.578808
-0.588023 -3.59085 0.446773
-0.600853 -3.66518 -0.456035
-0.59887 -3.64909 0.585691
-0.600155 -3.65692 -0.324219
-0.591053 -3.59753 0.708665
-0.596743 -3.62821 -0.192701
-0.588246 -3.57265 0.835918
-0.592885 -3.59691 -0.0636315
-0.588159 -3.56436 0.967983
-0.588723 -3.54084 0.0626541
-0.564725 -3.39285 -0.794077
-0.586614 -3.52056 0.187049
-0.589211 -3.53615 -0.696835
-0.587764 -3.52367 0.312541
-0.591163 -3.54024 -0.568483
-0.587818 -3.51643 0.437755
-0.58876 -3.51829 -0.437998
-0.587794 -3.50876 0.563477
-0.58952 -3.5153 -0.311843
-0.59129 -3.52585 0.694926
-0.594222 -3.53954 -0.188095
-0.593308 -3.53033 0.82647
-0.585235 -3.47858 -0.0615721
-0.59035 -3.50524 0.952454
-0.598066 -3.52102 0.06234
-0.570685 -3.35628 -0.785979
-0.597559 -3.51062 0.18663
-0.597221 -3.50494 -0.69111
-0.598664 -3.50971 0.311495
-0.597817 -3.50105 -0.562538
-0.598418 -3.50458 0.436536
-0.605385 -3.54165 -0.441167
-0.600705 -3.51058 0.564103
-0.59876 -3.49554 -0.310274
-0.601886 -3.51011 0.692255
-0.60888 -3.54718 -0.188619
-0.603933 -3.51468 0.823321
-0.602793 -3.50805 -0.0621306
-0.603237 -3.50697 0.953489
-0.609256 -3.50896 0.0621655
-0.577977 -3.32536 -0.77923
-0.609395 -3.5025 0.186316
-0.609452 -3.50283 -0.69111
-0.609544 -3.49975 0.310797
-0.610713 -3.50284 -0.563164
-0.609894 -3.49454 0.435561
-0.615629 -3.52376 -0.439217
-0.618332 -3.5356 0.568483
-0.611644 -3.49736 -0.310623
-0.613797 -3.50606 0.691873
-0.614708 -3.50766 -0.18663
-0.615525 -3.50872 0.822421
-0.617375 -3.51566 -0.0623051
-0.61408 -3.49332 0.950384
-0.522362 -2.95042 -0.802857
-0.620105 -3.49893 0.0620259
-0.587538 -3.31181 -0.776531
-0.621966 -3.50232 0.186421
-0.622018 -3.50261 -0.691492
-0.624547 -3.51329 0.312192
-0.623975 -3.50652 -0.564103
-0.623133 -3.49825 0.436292
-0.626183 -3.51182 -0.437998
-0.626158 -3.50814 0.564416
-0.625949 -3.50697 -0.311669
-0.625341 -3.50003 0.69111
-0.628355 -3.51335 -0.187049
-0.627082 -3.50271 0.821521
-0.626822 -3.49774 -0.0620259
-0.627976 -3.50066 0.952972
-0.531284 -2.94097 -0.800786
-0.635873 -3.51643 0.0623749
-0.600483 -3.31741 -0.778331
-0.633832 -3.49816 0.186316
-0.634591 -3.50235 -0.691873
-0.638229 -3.51893 0.312889
-0.63727 -3.51015 -0.565041
-0.634631 -3.49215 0.435805
-0.638082 -3.50766 -0.437755
-0.638046 -3.50399 0.564103
-0.639258 -3.51064 -0.312192
-0.640019 -3.51134 0.693782
-0.640256 -3.50918 -0.186944
-0.639305 -3.5005 0.821521
-0.641544 -3.5093 -0.0622702
-0.643669 -3.51745 0.958148
-0.535946 -2.9087 -0.792504
-0.645242 -3.49845 0.0620957
-0.610291 -3.30571 -0.776081
-0.646765 -3.49986 0.186525
-0.644316 -3.4866 -0.689202
-0.649059 -3.50884 0.312192
-0.650957 -3.51567 -0.566293
-0.649349 -3.50357 0.437511
-0.649598 -3.50151 -0.437267
-0.649912 -3.4998 0.56379
-0.650781 -3.50447 -0.311843
-0.651195 -3.5033 0.692637
-0.653598 -3.51281 -0.187258
-0.651163 -3.49633 0.821071
-0.653057 -3.5031 -0.0622004
-0.656298 -3.51708 0.958666
-0.546809 -2.91061 -0.793539
-0.65782 -3.49814 0.0621306
-0.62471 -3.31888 -0.77968
-0.659845 -3.50554 0.186944
-0.659027 -3.49784 -0.691873
-0.660565 -3.50264 0.311843
-0.662858 -3.51144 -0.56598
-0.662312 -3.50519 0.437998
-0.664399 -3.51287 -0.438973
-0.662249 -3.5015 0.564416
-0.661527 -3.49435 -0.311146
-0.664882 -3.50872 0.694163
-0.6666 -3.51443 -0.187467
-0.665181 -3.50361 0.823321
-0.666163 -3.50878 -0.06234
-0.66435 -3.49591 0.953489
-0.556239 -2.90489 -0.792504
-0.667912 -3.48809 0.061991
-0.634245 -3.30914 -0.777881
-0.674336 -3.51499 0.187572
-0.671602 -3.49744 -0.692255
-0.673539 -3.50423 0.312192
-0.674126 -3.50728 -0.565667
-0.673182 -3.49907 0.437511
-0.67642 -3.5126 -0.439217
-0.672971 -3.49141 0.563164
-0.675231 -3.49984 -0.311843
-0.675398 -3.50071 0.693018
-0.678251 -3.5122 -0.187467
-0.678644 -3.51095 0.82557
-0.678406 -3.50643 -0.06234
-0.676917 -3.49546 0.954007
-0.56513 -2.89924 -0.791469
-0.681616 -3.49359 0.0621306
-0.643178 -3.29352 -0.774731
-0.684302 -3.50085 0.186944
-0.685833 -3.50869 -0.694926
-0.685156 -3.50197 0.312192
-0.687124 -3.50879 -0.566293
-0.68501 -3.49475 0.437267
-0.687148 -3.50243 -0.438242
-0.68782 -3.50261 0.565354
-0.686065 -3.49367 -0.311495
-0.689507 -3.50797 0.694926
-0.689735 -3.50589 -0.187258
-0.689767 -3.50282 0.824221
-0.691415 -3.50797 -0.0624098
-0.692105 -3.50824 0.958148
-0.575623 -2.89914 -0.791986
-0.693417 -3.48922 0.0620957
-0.657712 -3.30654 -0.778331
-0.696908 -3.5004 0.187049
-0.697693 -3.50434 -0.694545
-0.699323 -3.50933 0.313063
-0.697823 -3.49862 -0.565041
-0.699148 -3.50207 0.438486
-0.699759 -3.50195 -0.438486
-0.699654 -3.49825 0.565041
-0.7006 -3.50298 -0.312541
-0.70406 -3.51709 0.697216
-0.701969 -3.50346 -0.187258
-0.702373 -3.50231 0.824671
-0.704443 -3.50945 -0.0624796
-0.70663 -3.51717 0.961254
-0.584591 -2.89143 -0.790433
-0.710748 -3.51226 0.0625494
-0.669637 -3.30614 -0.778781
-0.70952 -3.4999 0.187153
-0.709922 -3.50189 -0.694545
-0.712757 -3.51273 0.313586
-0.712783 -3.50971 -0.567231
-0.712554 -3.50545 0.439217
-0.712375 -3.50143 -0.43873
-0.710678 -3.48998 0.564103
-0.711631 -3.49466 -0.312018
-0.715941 -3.51268 0.696835
-0.714194 -3.50099 -0.187258
-0.713814 -3.49601 0.823771
-0.713486 -3.4913 -0.0622004
-0.71658 -3.50332 0.958148
-0.595459 -2.89316 -0.791469
-0.719373 -3.49213 0.0622353
-0.681174 -3.30378 -0.778781
-0.723346 -3.50523 0.187572
-0.721744 -3.49747 -0.694163
-0.722999 -3.50046 0.312715
-0.72463 -3.50527 -0.566919
-0.724384 -3.501 0.438973
-0.725397 -3.50281 -0.439217
-0.72406 -3.49328 0.565041
-0.72423 -3.4941 -0.312192
-0.726603 -3.50248 0.695308
-0.728847 -3.51021 -0.187886
-0.727203 -3.49923 0.82512
-0.727297 -3.49662 -0.06234
-0.72723 -3.49323 0.956078
-0.604762 -2.88728 -0.790433
-0.73402 -3.50134 0.0624447
-0.6903 -3.28994 -0.776081
-0.734966 -3.50281 0.187572
-0.73758 -3.51222 -0.697598
-0.736033 -3.50182 0.313063
-0.736454 -3.50078 -0.566606
-0.73701 -3.50039 0.439217
-0.740895 -3.5158 -0.441167
-0.737677 -3.50053 0.566606
-0.738067 -3.49935 -0.312889
-0.73923 -3.50184 0.69569
-0.741095 -3.50765 -0.187886
-0.741025 -3.50429 0.82692
-0.740543 -3.50201 -0.0624796
-0.73881 -3.4908 0.956078
-0.615643 -2.88893 -0.791469
-0.744377 -3.49302 0.06234
-0.699987 -3.28191 -0.774731
-0.747189 -3.50023 0.187572
-0.750245 -3.51154 -0.697979
-0.750336 -3.50897 0.313935
-0.747646 -3.49639 -0.566293
-0.746951 -3.49016 0.438242
-0.751718 -3.50944 -0.44068
-0.751547 -3.50565 0.567857
-0.751114 -3.50065 -0.313238
-0.750838 -3.49937 0.69569
-0.750207 -3.49345 -0.187258
-0.751823 -3.498 0.82602
-0.753605 -3.50332 -0.0625494
-0.754243 -3.50331 0.960219
-0.626037 -2.89065 -0.792504
-0.760377 -3.50799 0.0626541
-0.712265 -3.28326 -0.775631
-0.758555 -3.49369 0.187363
-0.76022 -3.50136 -0.696453
-0.76366 -3.51425 0.314632
-0.760686 -3.49762 -0.566919
-0.759974 -3.49141 0.43873
-0.761851 -3.4971 -0.439461
-0.761676 -3.49336 0.566293
-0.764415 -3.50593 -0.313935
-0.766816 -3.51399 0.699124
-0.764101 -3.49862 -0.187677
-0.761948 -3.48584 0.823771
-0.764974 -3.49676 -0.0624796
-0.76812 -3.50821 0.962289
-0.634877 -2.88279 -0.790951
-0.769605 -3.49165 0.0624098
-0.727499 -3.29788 -0.77968
-0.771607 -3.49492 0.187572
-0.772014 -3.49677 -0.696071
-0.776353 -3.51351 0.314807
-0.775876 -3.50844 -0.569109
-0.773873 -3.49649 0.439705
-0.775342 -3.50023 -0.440192
-0.77301 -3.48682 0.565667
-0.775786 -3.49935 -0.313586
-0.778652 -3.50937 0.698743
-0.778041 -3.50373 -0.188095
-0.779185 -3.50599 0.82917
