2.743650 -0.152193 -17.130199
49.413300 12.074000 -0.951884
2.747330 -0.050752 -1.996920
5.766760 1.635220 -0.985802
2.858120 -0.810104 -0.954736
2.769610 0.051136 -1.138140
3.303530 -0.806674 -0.972822
2.825280 -0.580823 -0.951495
2.766480 -0.463359 -0.939725
2.735360 -0.355127 -1.021250
2.974360 0.498087 -0.938818
2.734270 -0.252926 -0.940156
2.741290 -0.151879 -0.939049
2.741170 -0.050577 -1.976150
5.771870 1.634700 -0.977067
2.865200 -0.811139 -0.945063
2.772930 0.051136 -1.124090
3.300100 -0.804875 -0.964852
2.834230 -0.581967 -0.940560
2.766040 -0.462733 -0.926979
2.729230 -0.353909 -1.009590
2.974160 0.497462 -0.926230
2.730150 -0.252229 -16.792299
49.496799 10.159800 -0.929940
2.742660 -0.151774 -0.933965
2.757690 -0.050821 -1.960950
5.793370 1.638840 -0.970261
2.879740 -0.814245 -0.936656
2.780000 0.051205 -1.118160
3.320630 -0.808924 -0.946947
2.815420 -0.577388 -0.931045
2.771340 -0.463046 -0.916815
2.730560 -0.353665 -0.998577
2.975800 0.497149 -0.917961
2.737140 -0.252577 -16.650700
49.677200 10.184200 -0.916709
2.736580 -0.151251 -0.919889
2.747660 -0.050577 -1.945620
5.814830 1.642980 -0.960202
2.883110 -0.814245 -0.927091
2.785310 0.051240 -1.107830
3.330250 -0.810274 -1.246370
3.746710 0.206936 -0.937733
2.820570 -0.577770 -0.921366
2.774580 -0.463046 -0.906801
2.733910 -0.353665 -0.985074
2.969890 0.495584 -0.904640
2.728980 -0.251531 -16.361099
49.384602 10.112500 -0.908407
2.743550 -0.151460 -0.907780
2.743260 -0.050437 -1.919240
5.803250 1.637810 -0.946507
2.875440 -0.811139 -0.915348
2.780780 0.051101 -1.096780
3.333910 -0.810274 -1.212700
3.688430 0.203482 -0.927268
2.821960 -0.577388 -0.904764
2.755100 -0.459292 -0.896492
2.733130 -0.353177 -0.973470
2.969560 0.494959 -0.892627
2.724550 -0.250834 -15.922200
48.598999 9.940770 -0.901790
2.754140 -0.151879 -0.896333
2.740710 -0.050333 -1.927180
5.896220 1.662140 -0.937565
2.880400 -0.811657 -0.902543
2.774450 0.050926 -1.085740
3.339570 -0.810724 -1.198580
3.688840 0.203273 -0.917906
2.825020 -0.577388 -0.898800
2.769510 -0.461169 -0.890007
2.745680 -0.354396 -0.961881
2.969180 0.494333 -0.882359
2.723710 -0.250486 -0.889097
2.747770 -0.151356 -0.889836
2.753340 -0.050507 -0.926913
2.881810 -0.811139 -0.893465
2.779480 0.050961 -1.072290
3.337770 -0.809374 -1.185080
3.691100 0.203168 -0.906238
2.822600 -0.576243 -0.889127
2.772630 -0.461169 -0.874968
2.731750 -0.352202 -0.952715
2.976280 0.494959 -0.877098
2.740050 -0.251706 -0.877067
2.743250 -0.150937 -15.719700
49.197102 11.923800 -0.879610
2.754520 -0.050472 -1.615790
5.062940 1.424020 -0.919774
2.894240 -0.813727 -0.886178
2.790210 0.051101 -1.058860
3.335920 -0.808024 -1.169170
3.685700 0.202645 -0.895193
2.822000 -0.575480 -1.272250
4.013080 0.368320 -0.873477
2.756890 -0.458040 -0.863630
2.729110 -0.351471 -0.939938
2.972050 0.493707 -0.865726
2.737400 -0.251183 -15.560300
49.231098 10.036200 -0.866884
2.744390 -0.150832 -0.866982
2.748040 -0.050298 -1.561510
4.952480 1.391410 -0.910245
2.899270 -0.814245 -0.876433
2.793280 0.051101 -1.050120
3.348900 -0.810274 -1.156300
3.689750 0.202645 -0.884163
2.821370 -0.574717 -1.264190
4.036510 0.370063 -0.862669
2.756150 -0.457414 -1.262900
4.037320 0.519407 -0.854690
2.734010 -0.351715 -0.927202
2.967780 0.492456 -0.853789
2.732800 -0.250486 -15.329900
49.097698 9.998010 -0.859083
2.753120 -0.151146 -15.294700
49.045200 11.860800 -0.855600
2.745320 -0.050193 -1.553400
4.987410 1.399690 -0.897829
2.895050 -0.812174 -0.864309
2.788690 0.050961 -1.037850
3.350680 -0.809824 -1.149970
3.712650 0.203692 -0.872567
2.818810 -0.573572 -1.251860
4.046610 0.370586 -0.855376
2.766690 -0.458666 -0.843970
2.733180 -0.351227 -0.915023
2.963280 0.491204 -0.845419
2.739570 -0.250834 -15.196600
49.274799 10.023200 -0.849468
2.756100 -0.151146 -0.845902
2.746240 -0.050158 -1.530610
4.972220 1.394000 -0.886587
2.894470 -0.811139 -0.852715
2.783890 0.050821 -1.026730
3.354100 -0.809824 -1.154530
3.773940 0.206832 -0.863871
2.825590 -0.574335 -1.233650
4.037610 0.369366 -0.840425
2.750620 -0.455537 -0.835482
2.737860 -0.351471 -0.905827
2.970240 0.491830 -0.835852
2.742500 -0.250834 -14.920900
48.956799 9.948400 -0.837997
2.751260 -0.150728 -15.017200
49.334499 11.905800 -0.839220
2.758740 -0.050333 -1.518300
4.994170 1.398660 -0.878104
2.901090 -0.812174 -0.845307
2.794510 0.050961 -1.011630
3.346470 -0.807124 -1.161570
3.844860 0.210495 -0.854496
2.828440 -0.574335 -1.223710
4.053130 0.370412 -0.830818
2.753540 -0.455537 -0.824201
2.735060 -0.350740 -0.896592
2.977170 0.492456 -0.827901
2.749070 -0.251183 -14.851800
49.347000 10.017100 -0.825511
2.744610 -0.150204 -0.827860
2.755900 -0.050228 -1.506410
5.017940 1.403830 -0.870184
2.911550 -0.814245 -0.833259
2.789770 0.050821 -1.001060
3.353720 -0.808024 -1.156130
3.875690 0.211961 -0.841811
2.822000 -0.572427 -0.824022
2.765890 -0.457102 -0.813517
2.734120 -0.350253 -0.885069
2.976490 0.491830 -0.817733
2.750040 -0.251009 -0.816494
2.749390 -0.150309 -0.816530
2.753030 -0.050123 -0.858921
2.910860 -0.813209 -0.825779
2.800340 0.050961 -0.989349
3.357190 -0.808024 -1.214410
4.120890 0.225149 -0.828072
2.811740 -0.569756 -10.150900
34.489899 3.145450 -0.813246
2.764960 -0.456476 -0.805648
2.742650 -0.350984 -0.870740
2.964250 0.489327 -0.806444
2.747140 -0.250486 -14.810800
50.485600 10.227000 -0.809140
2.759890 -0.150728 -0.805708
2.749960 -0.050019 -10.467800
35.750900 9.981620 -0.845514
2.902710 -0.810104 -0.812013
2.787700 0.050682 -0.982569
3.375420 -0.811623 -0.817157
2.810840 -0.568992 -0.801318
2.758150 -0.454912 -0.794335
2.737680 -0.350009 -0.865338
2.984340 0.492143 -0.793523
2.738460 -0.249440 -0.798317
2.756800 -0.150414 -0.797216
2.756600 -0.050088 -1.445540
5.001640 1.395030 -0.838021
2.912930 -0.812174 -0.801173
2.786680 0.050612 -0.968627
3.371340 -0.809824 -0.808374
2.815420 -0.569374 -0.791685
2.760930 -0.454912 -0.786414
2.746160 -0.350740 -0.858176
2.998740 0.494020 -0.785533
2.744900 -0.249788 -14.601800
51.057098 10.322400 -0.788140
2.757650 -0.150309 -0.787588
2.759370 -0.050088 -1.414820
4.960210 1.382090 -0.829957
2.923270 -0.814245 -0.794169
2.799070 0.050786 -0.957917
3.378450 -0.810724 -0.797470
2.814450 -0.568611 -0.781505
2.761780 -0.454599 -0.775743
2.745070 -0.350253 -0.846630
2.997920 0.493394 -0.775406
2.745710 -0.249614 -14.266700
50.552299 10.210200 -0.775256
2.748850 -0.149681 -11.736300
41.641701 9.988280 -0.778494
2.764020 -0.050123 -1.404310
4.989290 1.388820 -0.819749
2.926150 -0.814245 -0.783316
2.797980 0.050717 -0.943493
3.372390 -0.808474 -0.788170
2.819110 -0.568992 -0.771860
2.764490 -0.454599 -0.761890
2.732470 -0.348303 -0.832979
2.989430 0.491517 -0.767422
2.754160 -0.250137 -14.064900
50.511002 10.191900 -0.767262
2.757310 -0.149995 -11.226500
40.371899 9.674240 -0.768305
2.764800 -0.050088 -1.396700
5.029530 1.398660 -0.806442
2.917820 -0.811139 -0.774609
2.804550 0.050786 -0.931715
3.375660 -0.808474 -0.776236
2.814270 -0.567466 -0.763254
2.770980 -0.455224 -1.122650
4.078540 0.519407 -0.754453
2.742770 -0.349278 -0.822538
2.992320 0.491517 -0.754634
2.745300 -0.249091 -13.933200
50.722599 10.224700 -0.757633
2.759970 -0.149995 -0.753892
2.750100 -0.049774 -1.378630
5.032510 1.398140 -0.797268
2.924340 -0.812174 -0.763764
2.803380 0.050717 -0.922998
3.390180 -0.811173 -0.765893
2.815070 -0.567084 -0.750470
2.762190 -0.453347 -1.108410
4.082440 0.519407 -0.745915
2.749210 -0.349765 -0.810019
2.987550 0.490266 -0.745046
2.747910 -0.249091 -13.767400
50.812599 10.233100 -0.749560
2.768380 -0.150309 -10.647100
39.350700 9.411500 -0.745332
2.756580 -0.049844 -1.387260
5.134270 1.425060 -0.785048
2.919650 -0.810104 -0.751379
2.796370 0.050542 -0.907620
3.380210 -0.808024 -0.758096
2.825310 -0.568611 -0.739289
2.759070 -0.452409 -0.737339
2.755640 -0.350253 -0.802648
3.001810 0.492143 -0.734421
2.746650 -0.248742 -13.556500
50.735199 10.207900 -0.738346
2.765200 -0.149995 -0.735189
2.757230 -0.049809 -1.367340
5.131620 1.422990 -0.780793
2.944780 -0.816315 -0.743149
2.804780 0.050647 -0.895816
3.383350 -0.808024 -0.748230
2.827940 -0.568611 -0.730159
2.763540 -0.452721 -1.079880
4.090080 0.519407 -0.725157
2.746550 -0.348790 -0.789163
2.991090 0.489953 -0.723813
2.745340 -0.248394 -13.389300
50.820099 10.215500 -0.726656
2.760030 -0.149576 -0.727569
2.765460 -0.049914 -1.335090
5.078200 1.406940 -0.768580
2.938000 -0.813727 -0.732833
2.803360 0.050577 -0.884098
3.384420 -0.807574 -0.738352
2.828500 -0.568229 -0.720990
2.765950 -0.452721 -1.066310
4.093630 0.519407 -0.714043
2.741260 -0.347815 -0.779240
2.993690 0.489953 -0.716711
2.755440 -0.249091 -0.715993
2.756620 -0.149262 -0.718896
2.769790 -0.049949 -1.322120
5.097560 1.411080 -0.757867
2.936800 -0.812692 -0.726029
2.815450 0.050752 -0.876761
3.402430 -0.811173 -0.723094
2.808120 -0.563650 -9.108250
35.397301 3.197740 -0.713782
2.775970 -0.453973 -0.706939
2.753350 -0.349034 -0.766821
2.988730 0.488701 -0.706085
2.752010 -0.248568 -10.119700
39.470699 7.920480 -0.708334
2.764790 -0.149576 -0.704763
2.754850 -0.049635 -1.303360
5.098410 1.410050 -0.745707
2.931930 -0.810621 -0.714227
2.810220 0.050612 -0.863439
3.399800 -0.809824 -0.714253
2.814440 -0.564413 -8.960150
35.332298 3.189030 -0.701176
2.766960 -0.452096 -0.697324
2.755800 -0.349034 -0.753962
2.981820 0.487137 -0.694520
2.746730 -0.247871 -9.914520
39.239300 7.867060 -0.699656
2.771120 -0.149786 -10.074500
39.931400 9.507780 -0.697098
2.765050 -0.049774 -1.283670
5.095430 1.407980 -0.737346
2.942020 -0.812692 -0.703442
2.808810 0.050542 -0.851094
3.400910 -0.809374 -0.704424
2.816910 -0.564413 -8.812600
35.266800 3.180310 -0.689121
2.759810 -0.450531 -0.686259
2.752430 -0.348303 -0.747371
2.999770 0.489640 -0.683966
2.745270 -0.247522 -9.721510
39.048901 7.822020 -0.688051
2.765790 -0.149367 -10.055500
40.450500 9.622960 -0.686960
2.765520 -0.049739 -1.258890
5.071760 1.400210 -0.727071
2.944570 -0.812692 -0.693633
2.811250 0.050542 -0.838752
3.401960 -0.808924 -0.694116
2.817450 -0.564031 -8.719940
35.421101 3.191470 -0.679955
2.764110 -0.450844 -0.674754
2.747100 -0.347328 -0.738307
3.008110 0.490579 -0.676278
2.755380 -0.248220 -9.584200
39.078800 7.821260 -0.676491
2.760410 -0.148948 -9.914210
40.485401 9.622960 -0.678252
2.771790 -0.049809 -8.750670
35.787998 9.871880 -0.717703
2.950850 -0.813727 -0.682870
2.809770 0.050472 -0.825951
3.401080 -0.808024 -0.683353
2.816040 -0.563268 -0.669372
2.762630 -0.450218 -0.664226
2.745580 -0.346840 -0.724611
2.995180 0.488076 -0.666655
2.757730 -0.248220 -9.521510
39.417301 7.882320 -0.665914
2.758880 -0.148739 -0.667182
2.766250 -0.049670 -0.707397
2.953330 -0.813727 -0.674947
2.817850 0.050577 -0.815574
3.407590 -0.808924 -0.671694
2.810770 -0.561742 -0.662041
2.772520 -0.451470 -0.654198
2.743910 -0.346353 -0.712319
2.990010 0.486824 -0.657948
2.763910 -0.248568 -9.408010
39.521301 7.896820 -0.656762
2.761070 -0.148739 -0.656598
2.764670 -0.049600 -8.684400
36.594898 10.077900 -0.696712
2.951900 -0.812692 -0.665107
2.820190 0.050577 -0.805018
3.416110 -0.810274 -0.662368
2.812980 -0.561742 -8.416800
35.772800 3.215180 -0.651457
2.770970 -0.450844 -0.646429
2.753910 -0.347328 -0.701880
2.992480 0.486824 -0.644230
2.746680 -0.246825 -9.326440
39.794701 7.944910 -0.648941
2.771120 -0.149157 -0.645577
2.761100 -0.049495 -0.691652
2.976900 -0.818903 -0.651188
2.804970 0.050263 -0.793528
3.420800 -0.810724 -0.653434
2.819100 -0.562505 -8.269390
35.704899 3.206460 -0.640444
2.767450 -0.449906 -0.637260
2.758080 -0.347571 -0.691874
2.996830 0.487137 -0.634638
2.748920 -0.246825 -0.637918
2.767530 -0.148843 -0.636831
2.767240 -0.049565 -8.349910
36.312000 9.983690 -0.680825
2.977410 -0.818386 -0.644065
2.818920 0.050472 -0.779848
3.415950 -0.808924 -0.645335
2.829020 -0.564031 -8.166830
35.830700 3.215180 -0.632096
2.775450 -0.450844 -0.625427
2.750610 -0.346353 -0.685348
3.016570 0.489953 -0.626804
2.758890 -0.247522 -0.627370
2.765850 -0.148634 -0.630261
2.783090 -0.049809 -8.258060
36.495399 10.026100 -0.672123
2.987310 -0.820456 -0.632467
2.813340 0.050333 -0.768346
3.420550 -0.809374 -0.633305
2.821680 -0.562123 -0.621539
2.773780 -0.450218 -0.615823
2.752770 -0.346353 -0.678692
3.036290 0.492769 -0.616300
2.757170 -0.247174 -9.223310
41.296600 8.225010 -0.618582
2.771920 -0.148843 -8.893140
39.883701 9.434000 -0.618368
2.775520 -0.049635 -8.151620
36.618301 10.052000 -0.660022
2.982090 -0.818386 -0.624370
2.823350 0.050472 -0.758923
3.434630 -0.812073 -0.622606
2.820040 -0.561360 -0.613553
2.783650 -0.451470 -0.606210
2.754910 -0.346353 -0.665543
3.027070 0.490891 -0.606244
2.757360 -0.246999 -9.050470
41.198101 8.199060 -0.609759
2.777960 -0.149053 -8.684550
39.598499 9.359310 -0.606964
2.769850 -0.049495 -8.013830
36.601200 10.039600 -0.648786
2.980600 -0.817351 -0.612812
2.817690 0.050333 -0.748171
3.442970 -0.813423 -0.613174
2.824110 -0.561742 -0.602578
2.779990 -0.450531 -0.597429
2.760890 -0.346840 -0.659982
3.052540 0.494646 -0.595352
2.753610 -0.246476 -8.934780
41.360001 8.225010 -0.599637
2.778120 -0.148948 -8.552860
39.659000 9.366510 -0.597291
2.771950 -0.049495 -7.872190
36.564800 10.022000 -0.641209
2.996070 -0.820974 -0.602972
2.819810 0.050333 -0.736963
3.449370 -0.814323 -0.603723
2.828150 -0.562123 -0.589989
2.768550 -0.448341 -0.587789
2.762960 -0.346840 -0.651788
3.066420 0.496523 -0.584909
2.751780 -0.246128 -9.232470
43.472599 8.638690 -0.589107
2.776290 -0.148739 -0.587611
2.774020 -0.049495 -7.838120
37.034302 10.143100 -0.629552
2.992620 -0.819421 -0.592302
2.817990 0.050263 -0.723317
3.444290 -0.812523 -0.592637
2.824480 -0.560978 -0.581132
2.774460 -0.448967 -0.577328
2.761100 -0.346353 -0.633810
3.033870 0.490891 -0.576930
2.761600 -0.246825 -0.576965
2.766600 -0.148111 -0.580370
2.787800 -0.049704 -8.602600
41.358601 11.319200 -0.621059
3.004260 -0.822009 -0.584485
2.829830 0.050437 -0.711683
3.448710 -0.812973 -0.580396
2.814990 -0.558689 -0.573434
2.786140 -0.450531 -0.565290
2.751440 -0.344890 -0.620167
3.018540 0.488076 -0.567286
2.763600 -0.246825 -8.304740
40.493500 8.034970 -0.568107
2.772510 -0.148320 -8.107390
39.601299 9.332320 -0.569518
2.781870 -0.049565 -8.407320
41.103001 11.241500 -0.610953
3.008300 -0.822527 -0.574302
2.827830 0.050368 -0.700242
3.451050 -0.812973 -0.569788
2.813150 -0.557926 -0.562232
2.778350 -0.448967 -0.557735
2.761080 -0.345865 -0.608453
3.014880 0.487137 -0.556060
2.757750 -0.246128 -8.140930
40.374500 8.005960 -0.559699
2.778290 -0.148529 -8.018310
39.838200 9.381810 -0.557833
2.774040 -0.049390 -0.600973
3.010310 -0.822527 -0.563645
2.825900 0.050298 -0.690097
3.463030 -0.815223 -0.559688
2.811180 -0.557162 -0.553687
2.786110 -0.449906 -0.548093
2.763010 -0.345865 -0.596389
3.009230 0.485886 -0.546137
2.755670 -0.245779 -8.790840
44.396999 8.797440 -0.549997
2.780230 -0.148529 -7.892040
39.930901 9.397110 -0.548147
2.775970 -0.049390 -0.592319
3.021870 -0.825115 -0.552625
2.821960 0.050193 -0.679127
3.471150 -0.816572 -0.552508
2.826600 -0.559834 -0.541310
2.774450 -0.447716 -0.539963
2.772700 -0.346840 -0.589278
3.028750 0.488701 -0.535755
2.753650 -0.245431 -7.976490
41.035500 8.125790 -0.539908
2.780170 -0.148425 -7.734070
39.862598 9.374610 -0.539975
2.785720 -0.049530 -7.921350
40.904301 11.163900 -0.582134
3.025810 -0.825633 -0.542015
2.819950 0.050123 -0.667005
3.473500 -0.816572 -0.541160
2.820800 -0.558307 -0.531621
2.776320 -0.447716 -0.528790
2.766770 -0.345865 -0.579442
3.034660 0.489327 -0.527634
2.763330 -0.246128 -7.830290
41.047699 8.122740 -0.529826
2.780080 -0.148320 -7.535820
39.579201 9.301730 -0.530249
2.787580 -0.049530 -0.571209
3.025930 -0.825115 -0.533650
2.829680 0.050263 -0.656320
3.483470 -0.818372 -0.531309
2.822670 -0.558307 -0.521927
2.778160 -0.447716 -0.517665
2.760790 -0.344890 -0.568847
3.036670 0.489327 -0.518352
2.767110 -0.246302 -0.518282
2.772100 -0.147797 -7.462750
39.953899 9.383610 -0.519781
2.785490 -0.049460 -0.560995
3.029800 -0.825633 -0.525226
2.839390 0.050403 -0.642739
3.478070 -0.816572 -0.519314
2.812930 -0.556017 -0.513658
2.787740 -0.448967 -0.508745
2.766490 -0.345378 -0.556630
3.026880 0.487450 -0.507609
2.763030 -0.245779 -0.510044
2.781750 -0.148215 -8.221380
44.882999 10.534500 -0.508379
2.775390 -0.049251 -7.499740
40.983700 11.163900 -0.546274
3.008930 -0.819421 -0.514735
2.835210 0.050298 -0.630507
3.476350 -0.815673 -0.510541
2.820520 -0.557162 -0.504411
2.789430 -0.448967 -0.499567
2.768160 -0.345378 -0.552019
3.061860 0.492769 -0.496548
2.756940 -0.245082 -0.501171
2.785390 -0.148320 -7.412640
41.238998 9.673350 -0.500101
2.785020 -0.049390 -0.539004
3.025950 -0.823562 -0.504484
2.835030 0.050263 -0.618710
3.480450 -0.816122 -0.501873
2.826060 -0.557926 -0.491914
2.775610 -0.446464 -0.489901
2.769890 -0.345378 -0.548202
3.102670 0.499026 -0.488307
2.766510 -0.245779 -0.490057
2.779250 -0.147901 -0.490377
2.786750 -0.049390 -1.040860
5.921130 1.610890 -0.526914
3.022190 -0.822009 -0.494586
2.836770 0.050263 -0.604885
3.472990 -0.813873 -0.491510
2.827880 -0.557926 -0.482749
2.783230 -0.447403 -0.480230
2.771580 -0.345378 -0.546127
3.155170 0.507161 -0.478648
2.768190 -0.245779 -0.479868
2.781030 -0.147901 -7.139200
41.417702 9.703040 -0.482005
2.796330 -0.049530 -0.517012
3.027820 -0.823045 -0.485193
2.844480 0.050368 -0.592480
3.477100 -0.814323 -0.480647
2.823770 -0.556781 -0.474355
2.792690 -0.448654 -0.468741
2.765490 -0.344403 -8.692810
51.286098 8.238780 -0.469981
2.775740 -0.246302 -0.470822
2.786630 -0.148111 -7.017940
41.580700 9.735430 -0.471576
2.794050 -0.049460 -1.029370
6.105420 1.659030 -0.507077
3.033420 -0.824080 -0.476089
2.848040 0.050403 -0.580303
3.475200 -0.813423 -0.469820
2.819620 -0.555636 -0.464766
2.792300 -0.448341 -0.498470
2.998020 0.373164 -0.460218
2.770950 -0.344890 -0.458659
2.767540 -0.245431 -0.461906
2.790140 -0.148215 -6.928970
41.899799 9.804720 -0.460516
2.787790 -0.049321 -1.001760
6.070850 1.648680 -0.495454
3.025550 -0.821492 -0.464207
2.837850 0.050193 -0.566597
3.467590 -0.811173 -0.460784
2.823100 -0.556017 -0.453746
2.786110 -0.447090 -0.494377
3.038930 0.378039 -0.451181
2.776460 -0.345378 -0.449159
2.767070 -0.245256 -8.562330
52.807098 10.398700 -0.452164
2.791740 -0.148215 -6.805690
42.066101 9.838010 -0.451738
2.795300 -0.049425 -0.485194
3.029170 -0.822009 -0.453666
2.835500 0.050123 -0.555414
3.475320 -0.812523 -0.451855
2.830510 -0.557162 -0.444019
2.787670 -0.447090 -0.478775
3.009270 0.374139 -0.441485
2.778010 -0.345378 -5.069460
31.935101 5.121350 -0.439812
2.770590 -0.245431 -8.316460
52.448799 10.322400 -0.441791
2.789350 -0.148006 -7.774580
49.142101 11.486500 -0.441667
2.794890 -0.049390 -0.964171
6.108230 1.656960 -0.475513
3.036570 -0.823562 -0.443766
2.837070 0.050123 -0.541474
3.465690 -0.809824 -0.443182
2.839830 -0.558689 -0.433070
2.781400 -0.445838 -0.461861
2.969730 0.369020 -0.432270
2.779460 -0.345378 -0.430443
2.774080 -0.245605 -0.431135
2.784960 -0.147692 -0.433008
2.800290 -0.049460 -0.930933
6.027390 1.634180 -0.463979
3.028580 -0.820974 -0.434658
2.840500 0.050158 -0.530860
3.473240 -0.811173 -0.433170
2.837400 -0.557926 -0.423546
2.780870 -0.445525 -0.451414
2.967320 0.368533 -0.421260
2.769110 -0.343915 -0.421539
2.777460 -0.245779 -0.423094
2.794270 -0.148111 -0.424317
2.805660 -0.049530 -0.917290
6.072470 1.645570 -0.453935
3.030100 -0.820974 -0.426124
2.847860 0.050263 -0.517900
3.465350 -0.808924 -0.422311
2.829120 -0.556017 -0.416941
2.799840 -0.448341 -0.443031
2.978620 0.369752 -0.412175
2.774490 -0.344403 -0.412620
2.780820 -0.245953 -4.902920
33.082699 6.500860 -0.412947
2.789730 -0.147797 -0.412183
2.791300 -0.049251 -0.891861
6.046960 1.637810 -0.442516
3.025940 -0.819421 -0.416179
2.849330 0.050263 -0.507771
3.480630 -0.812073 -0.411300
2.822800 -0.554491 -0.406881
2.799320 -0.448028 -0.432348
2.978180 0.369508 -0.402487
2.775910 -0.344403 -4.603110
31.786100 5.086940 -0.401769
2.774350 -0.245256 -4.791930
33.130699 6.506970 -0.404634
2.801040 -0.148320 -0.402724
2.794700 -0.049286 -0.869095
6.038570 1.634700 -0.431131
3.021720 -0.817868 -0.405386
2.844820 0.050158 -0.495342
3.480460 -0.811623 -0.403101
2.835880 -0.556781 -0.395443
2.788990 -0.446151 -0.421670
2.977710 0.369264 -0.393908
2.785160 -0.345378 -4.663970
33.018600 5.281540 -0.391040
2.771860 -0.244908 -4.516630
32.015800 6.284870 -0.393740
2.794530 -0.147901 -0.394079
2.804010 -0.049425 -0.843179
6.007130 1.625380 -0.422712
3.042420 -0.823045 -0.395453
2.846220 0.050158 -0.481314
3.468650 -0.808474 -0.393512
2.843170 -0.557926 -0.385759
2.794340 -0.446777 -0.413989
2.998830 0.371702 -0.383642
2.782580 -0.344890 -0.381363
2.773210 -0.244908 -4.393390
31.989401 6.276470 -0.382951
2.791990 -0.147692 -0.848965
6.197580 1.444190 -0.384832
2.809330 -0.049495 -0.822468
6.011950 1.625900 -0.413644
3.055360 -0.826150 -0.386625
2.859540 0.050368 -0.468859
3.472320 -0.808924 -0.383322
2.842590 -0.557544 -0.376265
2.797620 -0.447090 -0.404579
3.012130 0.373164 -0.372384
2.776100 -0.343915 -4.263910
31.829399 5.086310 -0.373266
2.786370 -0.245953 -4.226760
31.593901 6.195950 -0.373468
2.795290 -0.147797 -0.828613
6.210160 1.446440 -0.373739
2.804780 -0.049390 -4.309970
32.387901 8.754810 -0.401210
3.043380 -0.822527 -0.376903
2.862860 0.050403 -0.456991
3.475870 -0.809374 -0.370842
2.824440 -0.553728 -0.366240
2.796960 -0.446777 -0.394063
3.013520 0.373164 -0.363206
2.781320 -0.344403 -4.169120
31.969400 5.106330 -0.362507
2.779750 -0.245256 -4.098200
31.468300 6.168470 -0.363709
2.796580 -0.147797 -0.807180
6.214950 1.446890 -0.362147
2.792180 -0.049146 -4.183480
32.299301 8.726860 -0.390583
3.044760 -0.822527 -0.366400
2.860190 0.050333 -0.446090
3.487110 -0.811623 -0.361975
2.833510 -0.555254 -0.519636
4.073300 0.359256 -0.356475
2.798220 -0.446777 -0.379533
2.983370 0.369264 -0.353496
2.782570 -0.344403 -4.034140
31.799601 5.076920 -0.351297
2.769140 -0.244210 -4.014470
31.688900 6.208920 -0.355198
2.807740 -0.148320 -0.771316
6.105600 1.420790 -0.353398
2.801370 -0.049286 -0.761795
6.047200 1.633150 -0.382344
3.065280 -0.827703 -0.354930
2.849540 0.050123 -0.433916
3.488650 -0.811623 -0.354261
2.852290 -0.558689 -0.517675
4.173950 0.367972 -0.346463
2.797490 -0.446464 -0.369848
2.990590 0.369995 -0.343780
2.783790 -0.344403 -3.924550
31.825199 5.078800 -0.342360
2.776290 -0.244733 -3.916800
31.807899 6.229530 -0.344664
2.803010 -0.148006 -3.885830
31.647600 7.361300 -0.343618
2.802580 -0.049286 -0.739744
6.042150 1.631080 -0.373036
3.078100 -0.830809 -0.345461
2.854740 0.050193 -0.421736
3.490140 -0.811623 -0.343831
2.849610 -0.557926 -0.499764
4.148040 0.365531 -0.336225
2.794760 -0.445838 -0.358222
2.982010 0.368777 -0.334060
2.784970 -0.344403 -3.871720
32.325100 5.156390 -0.332906
2.779440 -0.244908 -3.809470
31.852600 6.235640 -0.333456
2.792300 -0.147378 -3.794510
31.821600 7.398640 -0.335251
2.815680 -0.049495 -0.720927
6.063880 1.636250 -0.364998
3.102410 -0.837021 -0.335728
2.857910 0.050228 -0.410231
3.497400 -0.812973 -0.332969
2.842990 -0.556399 -0.327154
2.801800 -0.446777 -0.352407
3.022670 0.373651 -0.324337
2.786120 -0.344403 -6.119850
52.650799 8.395210 -0.324121
2.788500 -0.245605 -3.660000
31.536100 6.171140 -0.325547
2.809320 -0.148215 -3.704900
32.020500 7.441830 -0.324043
2.804910 -0.049286 -0.668765
5.797680 1.563780 -0.351539
3.080630 -0.830809 -0.325522
2.857080 0.050193 -0.396259
3.483320 -0.809374 -0.322822
2.842190 -0.556017 -0.350457
3.090310 0.272100 -0.317371
2.802930 -0.446777 -0.314163
2.783290 -0.343915 -3.589990
31.805099 5.069420 -0.313492
2.781700 -0.244908 -3.531700
31.386801 6.139470 -0.315292
2.806470 -0.148006 -3.555740
31.700100 7.364450 -0.314294
2.802000 -0.049216 -0.645022
5.759550 1.552910 -0.342906
3.101040 -0.835986 -0.316047
2.858140 0.050193 -0.385990
3.496230 -0.812073 -0.313113
2.845250 -0.556399 -0.324003
2.948920 0.259550 -0.307860
2.802000 -0.446464 -0.304933
2.784320 -0.343915 -3.507740
32.080502 5.111340 -0.303565
2.780790 -0.244733 -3.427160
31.394400 6.138710 -0.306850
2.815440 -0.148425 -3.457750
31.777599 7.379740 -0.304512
2.803080 -0.049216 -3.459300
31.895201 8.596420 -0.335915
3.132890 -0.844268 -0.305856
2.857240 0.050158 -0.376888
3.526630 -0.818822 -0.303259
2.842370 -0.555636 -0.315276
2.959890 0.260421 -0.297659
2.799130 -0.445838 -0.296677
2.799180 -0.345621 -3.466290
32.704899 5.208960 -0.294132
2.779800 -0.244559 -5.248550
49.686401 9.711800 -0.295973
2.806560 -0.147901 -3.332750
31.655800 7.348700 -0.296263
2.814020 -0.049390 -0.608829
5.792630 1.560680 -0.296174
2.856250 0.050123 -0.361980
3.496840 -0.811623 -0.293136
2.841450 -0.555254 -0.303921
2.951060 0.259550 -0.288779
2.804030 -0.446464 -3.304330
32.139900 3.967090 -0.285975
2.786330 -0.343915 -3.322700
32.429901 5.163280 -0.284427
2.780810 -0.244559 -3.291090
32.176701 6.287160 -0.285245
2.793620 -0.147169 -3.205030
31.443701 7.296960 -0.285830
2.809070 -0.049286 -0.586068
5.769730 1.553950 -0.286894
2.869250 0.050333 -0.352646
3.533050 -0.819722 -0.282826
2.838550 -0.554491 -0.295787
2.973910 0.261467 -0.278696
2.807040 -0.446777 -3.184170
32.128101 3.964170 -0.275563
2.785380 -0.343672 -3.236700
32.716499 5.207080 -0.276089
2.795670 -0.245779 -3.185660
32.315601 6.311960 -0.276567
2.810550 -0.148006 -3.070330
31.257401 7.251070 -0.276610
2.816020 -0.049390 -0.551976
5.629470 1.515640 -0.276803
2.864220 0.050228 -0.343922
3.565230 -0.826920 -0.272352
2.833660 -0.553346 -0.284645
2.966990 0.260770 -0.269386
2.807950 -0.446777 -3.080250
32.166199 3.967580 -0.266325
2.786280 -0.343672 -3.133760
32.845600 5.225850 -0.265572
2.788680 -0.245082 -3.086850
32.413898 6.329130 -0.266679
2.805490 -0.147692 -2.957080
31.166500 7.227680 -0.265835
2.807010 -0.049216 -0.532138
5.629430 1.515130 -0.266988
2.867160 0.050263 -0.336163
3.616860 -0.838618 -0.263498
2.840410 -0.554491 -0.273150
2.950060 0.259201 -0.259582
2.808870 -0.446777 -2.965410
32.149101 3.964170 -0.257144
2.793120 -0.344403 -3.028430
32.895100 5.232110 -0.256324
2.789550 -0.245082 -4.769200
52.002399 10.150700 -0.256703
2.804410 -0.147587 -2.848280
31.176701 7.227680 -0.256890
2.811860 -0.049286 -0.519781
5.700430 1.533760 -0.257837
2.872010 0.050333 -0.324167
3.617960 -0.838618 -0.254105
2.847180 -0.555636 -0.262673
2.949020 0.259027 -0.249214
2.797910 -0.444900 -3.828000
43.061501 5.308140 -0.248230
2.797920 -0.344890 -4.179850
47.206600 7.506040 -0.246060
2.784470 -0.244559 -2.853020
32.285599 6.300130 -0.247576
2.807240 -0.147692 -2.755120
31.302401 7.254670 -0.247423
2.816720 -0.049355 -0.497688
5.677190 1.527030 -0.246778
2.860940 0.050123 -0.244325
2.844100 -0.554873 -0.239278
2.796790 -0.444587 -3.674450
43.037102 5.303510 -0.238126
2.794810 -0.344403 -4.012040
47.185398 7.500410 -0.237161
2.789240 -0.244908 -2.708270
31.917801 6.226480 -0.237439
2.804100 -0.147483 -3.943090
46.663898 10.811600 -0.237589
2.817570 -0.049355 -0.472037
5.609590 1.508400 -0.236461
2.857800 0.050053 -0.234557
2.846890 -0.555254 -0.242759
2.952720 0.259201 -0.230321
2.807460 -0.446151 -3.550430
43.370098 5.343000 -0.228046
2.791670 -0.343915 -4.290240
52.633202 8.363930 -0.228394
2.801970 -0.245953 -0.227650
2.804910 -0.147483 -3.780790
46.685101 10.813400 -0.227752
2.818380 -0.049355 -0.452455
5.611200 1.508400 -0.227747
2.874550 0.050333 -0.224155
2.841820 -0.554109 -0.233075
2.961500 0.259898 -0.220522
2.808240 -0.446151 -3.396540
43.350601 5.339100 -0.218299
2.792450 -0.343915 -4.102500
52.596600 8.355790 -0.218148
2.796790 -0.245431 -0.218630
2.815650 -0.148006 -3.613610
46.643600 10.800800 -0.217296
2.811190 -0.049216 -0.410582
5.323830 1.430750 -0.216957
2.865360 0.050158 -0.214233
2.842580 -0.554109 -0.223633
2.974210 0.260944 -0.210717
2.809000 -0.446151 -3.248150
43.401798 5.343970 -0.209142
2.801110 -0.344890 -3.933570
52.807598 8.387080 -0.207644
2.787600 -0.244559 -4.555250
61.298500 11.948100 -0.208949
2.818390 -0.148111 -3.459110
46.768700 10.826900 -0.207776
2.815910 -0.049286 -0.388165
5.273210 1.416780 -0.206377
2.858120 0.050019 -0.204452
2.845270 -0.554491 -0.212109
2.959080 0.259550 -0.200487
2.803800 -0.445213 -3.100050
43.460400 5.349820 -0.199926
2.809740 -0.345865 -3.745840
52.773701 8.379570 -0.197630
2.784330 -0.244210 -4.332420
61.188702 11.923700 -0.198827
2.815110 -0.147901 -3.528380
50.081200 11.590800 -0.198227
2.820610 -0.049355 -0.397046
5.663810 1.521340 -0.195850
2.850850 0.049879 -0.194920
2.851850 -0.555636 -0.202184
2.965760 0.260073 -0.190431
2.800540 -0.444587 -2.956110
43.585800 5.363960 -0.189312
2.798540 -0.344403 -3.571720
52.936298 8.403350 -0.188715
2.796930 -0.245256 -4.131970
61.399300 11.961800 -0.188464
2.807820 -0.147483 -3.353550
50.093300 11.590800 -0.188646
2.825280 -0.049425 -0.378299
5.680580 1.525480 -0.186290
2.857500 0.049984 -0.184582
2.846630 -0.554491 -0.181289
2.811050 -0.446151 -2.813870
43.750401 5.382970 -0.179545
2.799180 -0.344403 -0.179204
2.801550 -0.245605 -3.954850
61.997200 12.075500 -0.179170
2.816430 -0.147901 -3.200870
50.454700 11.671800 -0.179529
2.829880 -0.049495 -0.359460
5.681810 1.525480 -0.177429
2.868080 0.050158 -0.174404
2.843340 -0.553728 -0.172811
2.825440 -0.448341 -2.670720
43.791199 5.386870 -0.169658
2.789860 -0.343184 -0.169183
2.798180 -0.245256 -0.169829
2.817010 -0.147901 -0.169170
2.822500 -0.049355 -0.344005
5.756310 1.545150 -0.167183
2.864690 0.050088 -0.164975
2.843900 -0.553728 -0.162266
2.814190 -0.446464 -2.530380
44.018200 5.413680 -0.160486
2.800340 -0.344403 -0.159563
2.792760 -0.244733 -3.481210
61.117199 11.899200 -0.160560
2.827560 -0.148425 -2.900780
51.241901 11.849100 -0.159811
2.823050 -0.049355 -0.319909
5.668690 1.521340 -0.157793
2.867220 0.050123 -0.155688
2.856220 -0.556017 -0.152396
2.804850 -0.444900 -2.381380
43.970901 5.406860 -0.151841
2.812750 -0.345865 -2.874530
53.421799 8.473430 -0.149813
2.793300 -0.244733 -0.150863
2.822090 -0.148111 -0.150167
2.827580 -0.049425 -0.148093
2.873750 0.050228 -0.148747
2.906200 0.152507 -0.146415
2.860640 -0.556781 -0.161074
3.157820 0.276632 -0.142906
2.811280 -0.445838 -2.228470
43.990799 5.408320 -0.141622
2.805330 -0.344890 -2.685070
53.372398 8.464040 -0.140850
2.799750 -0.245256 -0.140614
2.814620 -0.147692 -0.140494
2.832090 -0.049495 -2.100010
42.481701 11.396800 -0.138252
2.878240 0.050298 -0.139839
2.932640 0.153868 -0.135868
2.849370 -0.554491 -1.819410
38.296398 3.354280 -0.133371
2.817680 -0.446777 -2.083700
44.184700 5.431230 -0.131642
2.801840 -0.344403 -0.131262
2.804210 -0.245605 -0.130880
2.817090 -0.147797 -0.261829
5.656980 1.307420 -0.130608
2.832560 -0.049495 -1.953830
42.535099 11.409300 -0.129539
2.908670 0.050821 -0.128874
2.905150 0.152402 -0.125922
2.849830 -0.554491 -1.681000
38.195000 3.344860 -0.123709
2.822080 -0.447403 -1.930930
44.225399 5.435370 -0.121861
2.802290 -0.344403 -0.121387
2.802660 -0.245431 -0.121130
2.819530 -0.147901 -0.242083
5.657860 1.307420 -0.120872
2.824980 -0.049355 -1.814910
42.591499 11.422700 -0.119317
2.895100 0.050577 -0.119384
2.921550 0.153240 -0.116133
2.854170 -0.555254 -1.549420
38.244400 3.348700 -0.114029
2.814580 -0.446151 -1.785290
44.257401 5.438540 -0.112568
2.802680 -0.344403 -0.111206
2.793110 -0.244559 -0.112177
2.829890 -0.148425 -0.111010
2.825390 -0.049355 -0.109210
2.895500 0.050577 -0.109484
2.929930 0.153658 -0.106887
2.860430 -0.556399 -1.422010
38.233398 3.347300 -0.104423
2.820880 -0.447090 -1.631760
44.289101 5.441710 -0.103075
2.810990 -0.345378 -0.101890
2.805430 -0.245605 -0.101937
2.820290 -0.147901 -0.101433
2.833750 -0.049495 -0.098075
2.865890 0.050053 -0.100202
2.958240 0.155124 -0.096534
2.864730 -0.557162 -1.280940
38.210499 3.344860 -0.093886
2.815320 -0.446151 -1.474160
44.205299 5.430740 -0.093261
2.811330 -0.345378 -0.091965
2.801780 -0.245256 -0.091535
2.818640 -0.147797 -0.091799
2.842080 -0.049635 -1.395710
43.446201 11.647400 -0.087877
2.876220 0.050228 -0.088786
2.922640 0.153240 -0.086416
2.861120 -0.556399 -1.147780
38.222698 3.345560 -0.084116
2.817610 -0.446464 -1.319440
44.456402 5.460970 -0.082606
2.799750 -0.343915 -0.082418
2.810050 -0.245953 -0.081869
2.824940 -0.148111 -0.081762
2.838390 -0.049565 -1.251020
43.694099 11.712600 -0.078555
2.884490 0.050368 -0.078958
2.936910 0.153972 -0.076218
2.853550 -0.554873 -1.016260
38.298199 3.351840 -0.075088
2.829720 -0.448341 -1.173270
44.508202 5.466820 -0.073424
2.803970 -0.344403 -0.072610
2.810320 -0.245953 -0.072551
2.827190 -0.148215 -1.512340
59.337399 13.703600 -0.071653
2.830660 -0.049425 -1.168290
46.475300 12.457000 -0.068346
2.878750 0.050263 -0.069218
2.937150 0.153972 -0.066709
2.851830 -0.554491 -0.889725
38.321301 3.353580 -0.064982
2.820090 -0.446777 -1.015530
44.408798 5.454140 -0.063818
2.812150 -0.345378 -0.063110
2.802580 -0.245256 -0.062861
2.835410 -0.148634 -0.062441
2.838880 -0.049565 -1.035250
47.444599 12.715800 -0.058472
2.862970 0.049984 -0.057028
2.865780 -0.557162 -0.755944
38.324100 3.353580 -0.055474
2.812390 -0.445525 -0.873062
44.658001 5.484360 -0.054492
2.812350 -0.345378 -1.015680
52.896801 8.379570 -0.053326
2.802780 -0.245256 -0.053269
2.825620 -0.148111 -0.052678
2.847080 -0.049704 -0.047977
2.863160 0.049984 -0.046959
2.862040 -0.556399 -0.622282
38.334499 3.354280 -0.045325
2.822450 -0.447090 -0.709859
44.690701 5.488020 -0.044245
2.816500 -0.345865 -0.043668
2.810920 -0.245953 -0.042881
2.823800 -0.148006 -0.885081
58.960300 13.613600 -0.042681
2.843250 -0.049635 -0.892974
60.187901 16.129101 -0.038859
2.891300 0.050472 -0.036969
2.862190 -0.556399 -0.490149
38.467899 3.365780 -0.036040
2.828510 -0.448028 -0.561390
44.671001 5.485340 -0.034806
2.808690 -0.344890 -0.033903
2.815040 -0.246302 -0.683634
56.763401 11.034500 -0.033587
2.829920 -0.148320 -0.692639
59.227901 13.674800 -0.032709
2.839380 -0.049565 -0.028807
2.895420 0.050542 -0.027365
2.850510 -0.554109 -0.362553
38.465401 3.365430 -0.026221
2.834540 -0.448967 -0.404132
44.525799 5.467300 -0.025039
2.812760 -0.345378 -0.465376
53.327202 8.446520 -0.024567
2.815140 -0.246302 -0.486642
56.898899 11.060400 -0.023709
2.830020 -0.148320 -0.022829
2.843480 -0.049635 -0.468210
59.613201 15.973800 -0.018776
2.907500 0.050752 -0.017450
2.856480 -0.555254 -0.229193
38.621799 3.379030 -0.016304
2.830670 -0.448341 -0.248605
44.511002 5.465350 -0.015241
2.816800 -0.345865 -0.277025
52.905800 8.379570 -0.014741
2.815210 -0.246302 -0.286658
56.633301 11.008500 -0.013919
2.848060 -0.149262 -0.267801
56.826599 13.119600 -0.012904
2.843540 -0.049635 -0.260131
59.614399 15.973800 -0.007473
2.854560 -0.554873 -0.094375
38.618401 3.378680 -0.006404
2.822810 -0.447090 -0.093144
44.475899 5.460970 -0.005424
2.824780 -0.346840 -0.004906
2.811260 -0.245953 -0.003967
2.840100 -0.148843 -0.002986
2.851560 -0.049774 0.001520
2.903560 0.050682 0.002843
3.257530 0.170720 0.002500
2.864390 -0.556781 0.040460
38.638401 3.380420 0.003456
2.828740 -0.448028 0.062119
44.491798 5.462920 0.004418
2.812870 -0.345378 0.090679
51.958302 8.229390 0.004920
2.819230 -0.246651 0.005931
2.832110 -0.148425 0.006967
2.851560 -0.049774 0.011719
2.919530 0.050961 0.082041
19.586901 1.026520 0.012447
2.852580 -0.554491 0.175271
38.626099 3.379380 0.013339
2.830680 -0.448341 0.216447
44.288898 5.438050 0.013747
2.812840 -0.345378 0.262293
51.819401 8.207490 0.014781
2.823180 -0.246999 0.015851
2.838060 -0.148739 0.016400
2.847520 -0.049704 0.021312
2.907480 0.050752 0.146804
19.560600 1.025160 0.021952
2.858410 -0.555636 0.302161
38.473801 3.366130 0.022806
2.840500 -0.449906 0.364020
44.375198 5.448780 0.023139
2.820720 -0.346353 0.024127
2.821120 -0.246825 0.025278
2.839990 -0.148843 0.025880
2.851450 -0.049774 0.030954
2.907390 0.050752 0.214473
19.504101 1.022230 0.031388
2.854400 -0.554873 0.432158
38.687801 3.384950 0.032336
2.850290 -0.451470 0.513928
44.612000 5.478030 0.032984
2.820620 -0.346353 0.493879
41.612301 6.591210 0.033387
2.813060 -0.246128 0.034868
2.853870 -0.149576 0.036160
2.877330 -0.050228 0.041047
2.903270 0.050682 0.280746
19.379400 1.015740 0.041406
2.858200 -0.555636 0.566685
38.650200 3.381820 0.042462
2.862010 -0.453347 0.669977
44.633701 5.480950 0.042951
2.828430 -0.347328 0.043146
2.808940 -0.245779 0.639001
41.134998 7.996810 0.044705
2.845740 -0.149157 0.045816
2.853200 -0.049809 0.051214
2.905110 0.050717 0.348037
19.358299 1.014690 0.051384
2.858040 -0.555636 0.698930
38.500599 3.368920 0.052126
2.844060 -0.450531 0.825051
44.591400 5.476080 0.053307
2.854060 -0.350496 1.013950
53.785900 8.520360 0.053100
2.816740 -0.246476 0.054677
2.847570 -0.149262 1.210170
62.459000 14.422500 0.055972
2.863020 -0.049984 0.061736
2.922900 0.051031 0.416633
19.404900 1.017200 0.061359
2.857840 -0.555636 0.832602
38.466000 3.366130 0.061752
2.830040 -0.448341 0.973531
44.262798 5.436100 0.062739
2.830050 -0.347571 0.063778
2.854380 -0.249788 0.064750
2.853350 -0.149576 0.065920
2.860810 -0.049949 0.072185
2.932670 0.051205 0.480877
19.399401 1.016990 0.071237
2.853680 -0.554873 0.969983
38.586399 3.376940 0.072030
2.845610 -0.450844 1.135730
44.560799 5.473150 0.072720
2.833780 -0.348059 0.072866
2.820280 -0.246825 1.088420
41.844398 8.136480 0.074606
2.849110 -0.149367 0.075195
2.852570 -0.049809 0.081687
2.924410 0.051066 0.552774
19.545401 1.024740 0.082204
2.888740 -0.561742 1.101130
38.459301 3.366130 0.081295
2.839430 -0.449906 1.283830
44.568699 5.474620 0.081830
2.823600 -0.346840 1.207480
41.415901 6.562430 0.082827
2.823990 -0.247174 1.217960
41.526600 8.075420 0.084055
2.848850 -0.149367 0.085509
2.864290 -0.050019 0.091768
2.920110 0.050996 0.613644
19.311701 1.012600 0.093279
2.935550 -0.570901 1.231210
38.535099 3.373100 0.090827
2.827280 -0.448028 1.442610
44.663101 5.486800 0.091943
2.831230 -0.347815 1.343280
41.143002 6.519880 0.092192
2.823700 -0.247174 1.343270
40.923599 7.959030 0.093800
2.842550 -0.149053 0.095641
2.867970 -0.050088 0.102170
2.925770 0.051101 0.674710
19.129801 1.003180 0.103525
2.935200 -0.570901 1.367260
38.574299 3.376940 0.100766
2.828920 -0.448341 1.601190
44.733200 5.496060 0.101682
2.826930 -0.347328 1.483340
41.039299 6.504230 0.102336
2.831330 -0.247871 1.489600
41.014801 7.977720 0.103503
2.836220 -0.148739 0.105946
2.875610 -0.050228 0.112688
2.933390 0.051240 0.743653
19.183201 1.006110 0.113771
2.934820 -0.570901 0.110871
2.834470 -0.449280 1.625170
41.363201 5.082680 0.111235
2.818620 -0.346353 1.627040
41.045700 6.506110 0.112376
2.834940 -0.248220 1.658230
41.648899 8.102130 0.113882
2.847810 -0.149367 0.115661
2.867230 -0.050088 0.123430
2.944970 0.051450 0.813727
19.254400 1.009980 0.137360
3.250210 -0.632341 1.641260
38.675301 3.386700 0.120596
2.830120 -0.448654 0.121415
2.826150 -0.347328 1.775750
41.166100 6.526130 0.122271
2.834530 -0.248220 1.805120
41.678101 8.109000 0.123648
2.843410 -0.149157 0.125493
2.862810 -0.050019 0.133801
2.946510 0.051485 0.882124
19.277300 1.011340 0.149334
3.263440 -0.635012 1.777170
38.689301 3.388440 0.131111
2.843500 -0.450844 1.917930
41.438099 5.093410 0.131096
2.821740 -0.346840 0.131607
2.822140 -0.247174 1.964190
41.961800 8.165480 0.133948
2.850940 -0.149576 0.135675
2.866350 -0.050088 0.143499
2.934050 0.051275 0.948718
19.260201 1.010610 0.161883
3.286430 -0.639592 1.910630
38.651001 3.385650 0.155815
3.140940 -0.498087 2.077560
41.732498 5.130460 0.141539
2.833160 -0.348303 0.141857
2.829620 -0.247871 2.112050
41.982101 8.170820 0.143999
2.852450 -0.149681 0.146290
2.877850 -0.050298 0.154577
2.949500 0.051554 0.998997
18.935600 0.993755 0.172526
3.270160 -0.636539 2.047230
38.675900 3.388440 0.169293
3.187720 -0.505596 2.405090
45.138500 5.550170 0.151216
2.828690 -0.347815 0.151734
2.829110 -0.247871 3.000740
55.768002 10.855900 0.153956
2.851930 -0.149681 0.156983
2.889300 -0.050507 0.165428
2.958930 0.051729 1.070030
19.019800 0.998361 0.187028
3.324420 -0.647224 2.188260
38.776001 3.397850 0.181200
3.200910 -0.507786 2.556800
45.026798 5.537500 0.160749
2.822200 -0.347084 0.162062
2.836520 -0.248568 0.164369
2.859350 -0.150100 0.166145
2.872760 -0.050228 0.176705
2.974300 0.052008 1.140820
19.089701 1.002230 0.175207
2.931800 -0.570901 0.194033
3.227870 -0.512167 2.723980
45.183998 5.557970 0.171199
2.831530 -0.348303 0.171481
2.827980 -0.247871 0.173983
2.852780 -0.149786 0.175926
2.868170 -0.050158 0.187213
2.975660 0.052043 1.207960
19.093599 1.002650 0.185441
2.931170 -0.570901 2.457670
38.739799 3.396110 0.197897
3.110860 -0.493707 2.882710
45.190102 5.559920 0.188685
2.949770 -0.362927 0.180840
2.819410 -0.247174 0.184840
2.866100 -0.150518 0.186455
2.875520 -0.050298 0.197345
2.979020 0.052113 1.260920
18.984100 0.997105 0.195159
2.930540 -0.570901 2.583480
38.691700 3.392620 0.195546
2.920970 -0.463672 3.036270
45.235699 5.566750 0.214862
3.192750 -0.392907 0.191128
2.832710 -0.248394 3.756130
55.525501 10.817700 0.193669
2.855510 -0.149995 0.195759
2.878910 -0.050368 0.209441
3.010260 0.052671 2.346600
33.557899 1.762990 0.204014
2.910250 -0.567084 2.719610
38.698399 3.394020 0.204538
2.910450 -0.462107 0.225587
3.194000 -0.393151 0.201297
2.836000 -0.248742 0.203278
2.856850 -0.150100 4.094210
57.398499 13.285200 0.206664
2.890180 -0.050577 0.221989
3.037440 0.053160 2.450260
33.366199 1.753360 0.215102
2.929140 -0.570901 2.845300
38.653400 3.390880 0.213389
2.891990 -0.459292 3.291980
44.509300 5.479980 0.236441
3.189230 -0.392663 0.210848
2.837310 -0.248917 4.143320
55.623901 10.842100 0.213397
2.858110 -0.150204 0.216453
2.885450 -0.050507 0.234882
3.066550 0.053684 2.586630
33.616402 1.766970 0.225325
2.928370 -0.570901 0.224243
2.901080 -0.460856 0.248341
3.198280 -0.393882 3.982340
51.171501 8.129270 0.220750
2.836560 -0.248917 0.223840
2.863320 -0.150518 4.490260
57.310200 13.271700 0.226053
2.878700 -0.050403 0.248139
3.097600 0.054242 2.705890
33.631001 1.768220 0.235546
2.927570 -0.570901 3.106760
38.529301 3.381820 0.233415
2.888460 -0.458979 3.603920
44.500999 5.481930 0.259503
3.197400 -0.393882 4.168950
51.255699 8.144920 0.229682
2.823850 -0.247871 0.234646
2.872480 -0.151042 0.236754
2.885860 -0.050542 0.261782
3.130600 0.054835 2.842640
33.852200 1.780360 0.243135
2.895430 -0.564795 3.204490
38.081402 3.343470 0.241173
2.860070 -0.454599 3.761230
44.511902 5.484850 0.266308
3.145040 -0.387545 4.351200
51.280201 8.151180 0.240212
2.830970 -0.248568 0.243994
2.863680 -0.150623 4.887960
57.250301 13.265400 0.247166
2.889000 -0.050612 0.275485
3.161540 0.055394 2.966720
33.909801 1.783920 0.253926
2.902380 -0.566321 3.308140
37.736599 3.314180 0.252883
2.878890 -0.457727 3.874470
44.020000 5.425870 0.259496
2.942400 -0.362683 3.713260
42.020401 6.681320 0.250794
2.838060 -0.249265 0.253105
2.852860 -0.150100 5.078790
57.132000 13.242000 0.257960
2.896090 -0.050752 0.288687
3.184450 0.055813 0.263343
2.893660 -0.564795 3.474230
38.101799 3.347300 0.263111
2.879960 -0.458040 4.093960
44.725700 5.514590 0.268315
2.925660 -0.360733 3.854510
41.948200 6.671930 0.261793
2.849070 -0.250311 0.263795
2.859920 -0.150518 0.268252
2.897160 -0.050786 0.304676
3.235190 0.056720 1.784180
18.910000 0.995430 0.269378
2.849720 -0.556399 3.584300
37.847401 3.326040 0.273347
2.880990 -0.458353 4.212880
44.319901 5.466330 0.278903
2.928660 -0.361221 3.983470
41.828999 6.655040 0.271735
2.848140 -0.250311 4.903450
51.299599 10.017100 0.274539
2.866930 -0.150937 0.276138
2.878340 -0.050472 2.766430
28.367100 0.497498 1.767690
18.060801 0.951049 0.282773
2.883930 -0.563268 1.889650
19.237600 1.691170 0.281548
2.866300 -0.456163 4.377700
44.487400 5.488750 0.287056
2.911910 -0.359271 4.087120
41.386299 6.586830 0.284618
2.876910 -0.252926 4.192920
42.382000 8.278440 0.284636
2.871970 -0.151251 0.287965
2.895270 -0.050786 2.842900
28.134399 0.493589 1.833150
18.078400 0.952305 0.296296
2.922040 -0.570901 1.951620
19.213400 1.689600 0.292552
2.875130 -0.457727 1.984570
19.470100 2.403020 0.296410
2.902990 -0.358296 4.301120
42.051701 6.695080 0.319093
3.119750 -0.274366 4.336850
42.327999 8.270810 0.294862
2.872950 -0.151356 4.261650
41.451401 9.620260 0.298890
2.902210 -0.050926 2.917390
27.897600 0.489610 1.918330
18.282400 0.963400 0.307313
2.928800 -0.572427 2.010140
19.125200 1.682450 0.301344
2.862300 -0.455850 2.048150
19.421600 2.397900 0.306542
2.901940 -0.358296 4.313200
40.763500 6.492340 0.333755
3.154280 -0.277504 4.422490
41.726898 8.156320 0.303835
2.861970 -0.150832 4.402210
41.397499 9.611260 0.310077
2.911090 -0.051101 3.009160
27.835600 0.488702 2.007540
18.540001 0.977322 0.312878
2.884770 -0.564031 2.071720
19.070499 1.678270 0.314967
2.894620 -0.461169 2.126690
19.513000 2.410090 0.316669
2.900850 -0.358296 1.934230
17.718599 2.823020 0.347144
3.174880 -0.279421 0.314040
2.862870 -0.150937 0.319510
2.908050 -0.051066 2.163990
19.414801 0.340985 2.029640
18.151800 0.957225 0.322069
2.875860 -0.562505 2.108960
18.801800 1.655260 0.326987
2.915150 -0.464610 2.170110
19.316500 2.386690 0.327620
2.911620 -0.359758 2.002710
17.770599 2.832400 0.358895
3.179590 -0.279944 2.051860
18.178200 3.555920 0.324879
2.873730 -0.151565 4.639580
40.975498 9.520380 0.328758
2.898970 -0.050926 2.211420
19.230301 0.337879 2.090240
18.120800 0.955969 0.331830
2.876720 -0.562887 2.170610
18.788799 1.654740 0.336253
2.906140 -0.463359 2.272710
19.612499 2.424230 0.336407
2.898630 -0.358296 2.061090
17.732100 2.827400 0.368058
3.166500 -0.278898 2.117570
18.190399 3.559730 0.334908
2.872570 -0.151565 4.719990
40.422901 9.395760 0.339572
2.903770 -0.051031 2.266990
19.125200 0.336168 2.147110
18.059900 0.953143 0.343261
2.887250 -0.565176 2.201090
18.486300 1.628770 0.347330
2.912800 -0.464610 2.334570
19.549200 2.417400 0.353125
2.952630 -0.365121 2.115920
17.666000 2.818010 0.381241
3.183000 -0.280467 2.179650
18.171200 3.557440 0.344696
2.869400 -0.151460 4.885030
40.605400 9.442100 0.351620
2.918450 -0.051310 2.361120
19.341400 0.340113 2.217410
18.137899 0.957643 0.353098
2.884080 -0.564795 2.338580
19.073799 1.681230 0.357495
2.911570 -0.464610 2.334710
18.987301 2.348910 0.360006
2.927800 -0.362196 5.018920
40.758301 6.504230 0.392592
3.183630 -0.280641 2.238020
18.122601 3.549430 0.354954
2.870170 -0.151565 5.098580
41.227200 9.590560 0.362525
2.927190 -0.051485 7.479730
60.308201 16.283300 2.428490
19.359301 0.340566 2.364970
18.773300 1.655440 0.363935
2.884890 -0.460543 2.359840
18.680099 2.311860 0.363742
2.879320 -0.356346 2.272710
17.965099 2.868070 0.404150
3.190220 -0.281339 2.300560
18.134501 3.553250 0.364471
2.868970 -0.151565 5.110760
40.229900 9.362460 0.369454
2.904150 -0.051101 3.497200
27.149500 0.477812 4.270990
33.065601 1.747290 0.373979
2.895310 -0.567466 2.486500
19.223801 1.695880 0.376798
2.909130 -0.464610 2.386030
18.396601 2.277740 0.373791
2.878030 -0.356346 2.478570
19.057899 3.043900 0.409844
3.151320 -0.278027 2.368300
18.185200 3.564690 0.374499
2.871710 -0.151774 5.288240
40.495899 9.428600 0.379070
2.898880 -0.051031 7.627170
58.248402 15.740900 2.500910
18.894300 0.332678 2.503920
18.866400 0.997419 0.384342
2.895930 -0.567848 2.494010
18.766701 1.656310 0.385126
2.894090 -0.462420 2.542530
19.080799 2.363530 0.387511
2.904260 -0.359758 2.387070
17.866600 2.854930 0.413981
3.098530 -0.273495 5.672900
42.403500 8.315840 0.385582
2.878300 -0.152193 5.416610
40.380600 9.406100 0.390785
2.909430 -0.051240 1.430330
10.523600 0.185379 2.497210
18.325300 0.969262 0.395772
2.904300 -0.569756 2.571080
18.842800 1.663800 0.394959
2.890780 -0.462107 2.623380
19.176001 2.376450 0.397646
2.902890 -0.359758 2.471170
18.016600 2.880270 0.425337
3.101010 -0.273843 7.732430
56.301800 11.046700 0.395626
2.876940 -0.152193 0.402305
2.917950 -0.051415 7.782660
56.375801 15.249100 2.617840
18.769400 0.330793 2.547330
18.217501 0.964028 0.406452
2.906790 -0.570519 2.639060
18.849400 1.665200 0.404498
2.885470 -0.461482 2.684230
19.123501 2.371090 0.408330
2.905410 -0.360246 2.552760
18.140900 2.901550 0.440045
3.127130 -0.276284 2.633370
18.690100 3.668880 0.404830
2.869610 -0.151879 0.413046
2.920490 -0.051485 7.858070
55.491299 15.017200 2.691820
18.819599 0.331840 2.608080
18.188700 0.962982 0.411581
2.870370 -0.563650 2.706520
18.851999 1.666240 0.417941
2.907500 -0.465236 2.728630
18.958799 2.351830 0.416202
2.888250 -0.358296 2.619740
18.157301 2.905610 0.450959
3.125570 -0.276284 2.698320
