-22.188499 1.178820 0.675240
-4.061190 -0.800253 2.998010
-18.050800 1.600880 0.807306
-4.866000 -0.781234 2.474110
-14.928700 1.858020 1.024200
-6.186700 -0.769971 2.045580
-12.369700 1.985780 1.446870
-8.749300 -0.775860 1.980320
-11.988100 2.361830 2.493750
-15.112600 -0.802729 1.653780
-10.033100 2.347590 3.675370
-22.322001 -0.394878 1.417760
-8.620020 2.340760 0.479243
-2.936200 -0.797163 3.663470
-22.469801 0.397391 0.547553
-3.362100 -0.786429 3.681000
-22.627100 1.201420 0.661060
-4.063520 -0.800253 2.933380
-18.051399 1.600010 0.792848
-4.884390 -0.783737 2.422940
-14.943200 1.858750 1.001330
-6.182400 -0.768996 2.028260
-12.536700 2.011430 1.417590
-8.762160 -0.776558 1.937520
-11.989100 2.360690 2.440980
-15.121200 -0.802729 1.618750
-10.038900 2.347590 1.387660
-8.624920 2.340760 0.470513
-2.947390 -0.799751 4.106480
-25.752701 0.455194 0.532136
-3.340900 -0.781030 4.083390
-25.665501 1.361990 0.646871
-4.065810 -0.800253 2.873170
-18.079201 1.601570 0.773317
-4.871520 -0.781234 2.369520
-14.943700 1.857780 0.985955
-6.225070 -0.773870 2.020910
-12.773900 2.048350 1.383890
-8.747380 -0.774815 1.895970
-11.997800 2.361070 2.388180
-15.129700 -0.802729 1.584000
-10.046400 2.348040 1.358750
-8.637340 2.342830 0.459924
-2.947110 -0.799233 4.015940
-25.762899 0.455124 0.522869
-3.358140 -0.784629 3.995180
-25.659201 1.360940 0.632675
-4.068040 -0.800253 2.814020
-18.114700 1.603840 0.754489
-4.862480 -0.779357 2.317340
-14.951900 1.857780 0.960575
-6.204940 -0.770946 1.981860
-12.802000 2.051790 1.353950
-8.756090 -0.775163 1.854970
-12.010100 2.362220 2.335360
-15.137900 -0.802729 1.550110
-10.059500 2.349840 1.329510
-8.637980 2.341790 0.450216
-2.952510 -0.800269 0.509676
-3.346370 -0.781480 3.902590
-25.653200 1.359900 0.618471
-4.070220 -0.800253 2.751370
-18.128401 1.604190 0.743103
-4.896200 -0.784363 2.268050
-14.961400 1.858020 0.938210
-6.196310 -0.769483 1.937160
-12.808900 2.051790 1.321590
-8.748950 -0.774117 1.816610
-12.025900 2.364120 2.285140
-15.145600 -0.802729 1.515000
-10.053100 2.347140 1.301650
-8.657850 2.345940 0.439853
-2.950170 -0.799233 0.502579
-3.378970 -0.788678 3.814200
-25.674601 1.360320 0.604970
-4.072250 -0.800253 2.692700
-18.147200 1.605060 0.721954
-4.871410 -0.779982 2.216100
-14.971200 1.858260 0.915995
-6.195620 -0.768996 1.892150
-12.813600 2.051480 1.293150
-8.757220 -0.774466 1.776620
-12.045800 2.366790 1.481320
-10.067900 2.349390 1.270300
-8.654700 2.343870 0.428996
-2.947860 -0.798198 0.488542
-3.365280 -0.785079 3.718820
-25.648199 1.358220 0.590751
-4.074340 -0.800253 2.627050
-18.140800 1.603670 0.704945
-4.873900 -0.779982 2.165530
-14.990600 1.859730 0.894929
-6.202710 -0.769483 1.844030
-12.796700 2.047730 1.262010
-8.757740 -0.774117 1.734840
-12.053900 2.367180 1.446160
-10.073000 2.349390 1.238990
-8.651430 2.341790 0.418160
-2.945520 -0.797163 0.476245
-3.363100 -0.784179 3.631500
-25.676901 1.359060 0.576526
-4.076380 -0.800253 2.565100
-18.159700 1.604540 0.689031
-4.884150 -0.781234 2.110970
-14.982400 1.857780 0.873825
-6.209730 -0.769971 1.798520
-12.797200 2.046790 1.231990
-8.766040 -0.774466 1.692480
-12.057900 2.366790 1.412070
-10.085700 2.351190 1.209850
-8.663350 2.343870 0.409465
-2.958440 -0.800269 0.463970
-3.360880 -0.783280 3.543490
-25.701300 1.359690 0.562292
-4.078360 -0.800253 2.501160
-18.164600 1.604190 0.670902
-4.878700 -0.779982 2.057310
-14.979800 1.856560 0.850526
-6.200940 -0.768508 1.755450
-12.815100 2.048670 1.200840
-8.766340 -0.774117 1.649050
-12.054000 2.364890 1.375540
-10.081000 2.348940 1.180900
-8.677090 2.346450 0.398619
-2.956020 -0.799233 0.453794
-3.374070 -0.785979 3.448970
-25.677900 1.357800 2.437210
-18.169201 1.603840 0.654917
-4.888840 -0.781234 2.005010
-14.986900 1.856560 0.828875
-6.203870 -0.768508 1.708610
-12.805500 2.046160 1.170230
-8.770480 -0.774117 1.608260
-12.069400 2.366790 1.340340
-10.085700 2.348940 1.151870
-8.690740 2.349040 0.387041
-2.947820 -0.796645 0.441760
-3.373700 -0.785529 0.524643
-4.012110 -0.786515 2.376610
-18.199400 1.605760 0.636826
-4.883270 -0.779982 1.954990
-15.011500 1.858750 0.807215
-6.206730 -0.768508 1.594200
-12.274600 1.960440 1.139610
-8.774510 -0.774117 1.568650
-12.094400 2.370610 1.581610
-12.211100 -0.645302 1.306630
-10.101900 2.351640 1.574920
-12.192800 -0.214595 1.120540
-8.687050 2.346970 0.375769
-2.941490 -0.794574 1.556780
-12.203200 0.214734 0.428996
-3.367490 -0.783729 1.552390
-12.202800 0.644674 0.519554
-4.084030 -0.800253 1.552260
-12.218700 1.077590 0.616296
-4.858020 -0.775602 1.550300
-12.237600 1.514590 0.784547
-6.201630 -0.767533 1.545400
-12.233100 1.952930 1.107480
-8.766570 -0.773071 1.527400
-12.107600 2.372140 1.543970
-12.256200 -0.647396 1.273060
-10.119900 2.354790 1.530600
-12.184400 -0.214350 1.089250
-8.683240 2.344900 0.366214
-2.948530 -0.796127 1.513920
-12.206600 0.214700 0.417718
-3.372830 -0.784629 1.510030
-12.210100 0.644779 0.505295
-4.085820 -0.800253 1.511060
-12.236000 1.078640 0.602719
-4.887590 -0.779982 1.505880
-12.229100 1.512890 0.766287
-6.231910 -0.770946 1.502200
-12.234500 1.952300 1.074920
-8.754560 -0.771677 1.486560
-12.124600 2.374430 1.496320
-12.221800 -0.645302 1.238200
-10.128200 2.355690 1.489760
-12.203500 -0.214595 1.058930
-8.686990 2.344900 0.354763
-2.940200 -0.793539 1.472740
-12.223700 0.214909 0.404313
-3.360730 -0.781480 1.466450
-12.207400 0.644360 0.491030
-4.087560 -0.800253 1.467630
-12.235200 1.078120 0.584245
-4.877900 -0.778105 1.462470
-12.228400 1.512150 0.740292
-6.199070 -0.766558 1.459490
-12.239600 1.952300 1.042940
-8.746390 -0.770631 1.446550
-12.149200 2.378240 1.454600
-12.234900 -0.645721 1.202840
-10.132500 2.355690 1.448090
-12.216600 -0.214734 1.029510
-8.698300 2.346970 0.357531
-3.052710 -0.823562 1.427970
-12.210900 0.214595 0.393483
-3.369860 -0.783280 1.422440
-12.200500 0.643732 0.476759
-4.089250 -0.800253 1.424680
-12.238300 1.077940 0.570408
-4.907380 -0.782485 1.419320
-12.229500 1.511670 0.718648
-6.201620 -0.766558 1.414480
-12.225000 1.949170 1.013320
-8.757900 -0.771328 1.407060
-12.179500 2.383200 1.409360
-12.218100 -0.644570 1.166570
-10.128900 2.353890 1.404530
-12.213600 -0.214595 0.998703
-8.698000 2.345940 1.385560
-12.217800 0.214630 0.382156
-3.375090 -0.784179 1.382420
-12.209100 0.643942 0.462482
-4.090890 -0.800253 1.381500
-12.239200 1.077590 0.551061
-4.889710 -0.779357 1.376630
-12.234300 1.511670 0.697883
-6.211980 -0.767533 1.372170
-12.214000 1.946670 0.982524
-8.759400 -0.771154 1.366290
-12.200000 2.386260 1.366480
-12.221000 -0.644465 1.132940
-10.148400 2.357490 1.362690
-12.206300 -0.214385 0.970710
-8.708950 2.348010 1.344600
-12.218400 0.214560 0.370749
-3.374400 -0.783729 1.339140
-12.207900 0.643628 0.448199
-4.092470 -0.800253 1.336820
-12.226200 1.076020 0.534414
-4.887580 -0.778731 1.337770
-12.254600 1.513620 0.676849
-6.210310 -0.767046 1.341500
-12.328600 1.964190 0.950006
-8.744950 -0.769585 1.322860
-12.177100 2.380910 1.325300
-12.219500 -0.644151 1.099910
-10.157900 2.358840 1.320500
-12.215000 -0.214455 0.939474
-8.704600 2.345940 1.308720
-12.286600 0.215677 0.361647
-3.400860 -0.789578 1.317390
-12.409100 0.653990 0.434626
-4.093940 -0.800253 1.324410
-12.496000 1.099380 0.514856
-4.865850 -0.774976 1.328560
-12.577000 1.552860 0.658498
-6.244220 -0.770946 1.334030
-12.671200 2.018000 0.919890
-8.752180 -0.769934 1.280550
-12.183600 2.381300 1.065870
-10.175200 2.361990 1.305720
-12.486000 -0.219132 0.908883
-8.705900 2.345420 1.299830
-12.621300 0.221471 0.351767
-3.421490 -0.794077 1.307510
-12.739500 0.671156 0.419617
-4.095500 -0.800253 1.313270
-12.839700 1.129190 0.499025
-4.887350 -0.778105 1.317110
-12.899600 1.592100 0.633477
-6.214880 -0.767046 1.284190
-12.620700 2.009240 0.888127
-8.743440 -0.768888 1.236480
-12.194100 2.382440 1.294350
-12.787000 -0.673564 1.026220
-10.155800 2.356590 1.299120
-12.856600 -0.225555 0.877907
-8.703260 2.343870 1.284190
-12.934400 0.226881 0.344221
-3.473180 -0.805775 2.597970
-26.213400 1.380520 1.805540
-18.282900 1.607330 0.482350
-4.893000 -0.778731 1.484640
-15.087300 1.861430 0.613023
-6.240870 -0.769971 1.240710
-12.631000 2.010180 0.858767
-8.758380 -0.769934 1.194100
-12.200300 2.382820 0.990759
-10.159300 2.356590 0.848083
-8.712040 2.345420 2.506070
-26.218399 1.380310 0.391016
-4.098330 -0.800253 1.737930
-18.249399 1.603840 0.466121
-4.894570 -0.778731 1.440050
-15.149400 1.868500 0.588198
-6.199390 -0.764608 1.211700
-12.794600 2.035530 0.826689
-8.745460 -0.768539 1.154930
-12.217800 2.385490 0.957430
-10.166400 2.357490 0.817126
-8.709180 2.343870 2.418750
-26.222500 1.380100 0.377423
-4.099610 -0.800253 1.679230
-18.274900 1.605580 0.449394
-4.900100 -0.779357 1.392590
-15.213700 1.875810 0.570168
-6.240950 -0.769483 1.167640
-12.780800 2.032710 0.797322
-8.744180 -0.768191 1.110670
-12.204200 2.382060 0.922111
-10.171600 2.357940 0.788588
-8.715690 2.344900 2.325780
-26.214899 1.379260 1.614370
-18.268801 1.604540 0.432098
-4.889760 -0.777479 1.343520
-15.234000 1.877760 0.548424
-6.230940 -0.768021 1.123540
-12.790700 2.033650 0.765403
-8.731040 -0.766796 1.069680
-12.201900 2.380910 0.889224
-10.184300 2.360190 0.758997
-8.728010 2.347490 2.229690
-26.223301 1.379260 1.553960
-18.313999 1.608020 0.413507
-4.883430 -0.776228 1.289180
-15.256600 1.879960 0.522247
-6.193340 -0.763146 1.076320
-12.790800 2.033020 0.734922
-8.733650 -0.766796 1.024130
-12.196000 2.379010 0.851565
-10.183700 2.359290 0.727484
-8.736510 2.349040 2.136510
-26.211000 1.378220 1.491320
-18.335199 1.609420 0.395179
-4.869100 -0.773725 1.235280
-15.253100 1.878980 0.500306
-6.191170 -0.762658 1.030080
-12.774800 2.029890 0.704430
-8.736170 -0.766796 0.979817
-12.178000 2.374810 0.816013
-10.186600 2.359290 0.697444
-8.744770 2.350590 2.045160
-26.220301 1.378320 1.971460
-25.332300 2.222990 0.380322
-4.898020 -0.778105 1.182180
-15.259300 1.879230 0.479608
-6.204760 -0.764121 0.985177
-12.774400 2.029270 0.673931
-8.738570 -0.766796 0.938808
-12.200900 2.378630 0.780898
-10.195200 2.360640 0.666474
-8.741370 2.349040 1.924730
-25.718201 0.450167 1.953030
-26.219299 1.377900 0.305817
-4.105570 -0.800253 1.877110
-25.259600 2.216020 0.362347
-4.887500 -0.776228 1.129930
-15.277200 1.880930 0.459992
-6.234110 -0.767533 0.940579
-12.777700 2.029270 0.641814
-8.719020 -0.764879 0.895783
-12.198200 2.377480 0.744309
-10.184200 2.357490 0.635537
-8.737870 2.347490 1.834240
-25.714701 0.449993 1.866360
-26.229601 1.378110 1.788650
-25.261999 2.215670 0.346118
-4.900550 -0.778105 1.076320
-15.277100 1.880440 0.439342
-6.251520 -0.769483 0.897925
-12.776800 2.028640 0.610122
-8.703310 -0.763310 0.852375
-12.189500 2.375190 0.709567
-10.198400 2.360190 0.607360
-8.751490 2.350590 1.773440
-26.216000 1.377060 1.706070
-25.351601 2.222990 0.329865
-4.901680 -0.778105 1.025650
-15.280600 1.880440 0.417547
-6.237090 -0.767533 0.853583
-12.783800 2.029270 0.580798
-8.721300 -0.764704 0.812863
-12.206000 2.377860 0.675358
-10.194900 2.358840 0.577443
-8.763190 2.353180 1.669580
-25.888300 0.452820 1.680640
-26.202101 1.376020 1.622000
-25.357100 2.222990 0.311496
-4.883080 -0.774976 0.973314
-15.299900 1.882390 0.395523
-6.234550 -0.767046 0.808207
-12.774900 2.027390 0.549974
-8.717300 -0.764182 0.769631
-12.199000 2.375950 0.639157
-10.187500 2.356590 1.608260
-25.705799 -0.449574 0.546609
-8.761300 2.352150 1.568130
-25.712299 0.449644 1.588920
-26.203800 1.375810 1.529050
-25.362900 2.222990 0.294071
-4.892080 -0.776228 0.919903
-15.303200 1.882390 0.373045
-6.224010 -0.765583 0.762429
-12.757900 2.024260 0.518949
-8.709230 -0.763310 0.724799
-12.199700 2.375570 0.601929
-10.191700 2.357040 1.524070
-25.805099 -0.451215 0.516024
-8.763150 2.352150 1.474910
-25.735800 0.449958 1.497790
-26.215200 1.376120 1.440500
-25.368099 2.222990 0.276546
-4.885190 -0.774976 0.864254
-15.314400 1.883370 0.351122
-6.241190 -0.767533 0.718114
-12.764500 2.024890 0.488880
-8.716950 -0.763833 0.682429
-12.206100 2.376340 0.567753
-10.219000 2.362890 1.433090
-25.794300 -0.450935 0.485003
-8.757190 2.350080 1.391500
-25.776501 0.450586 1.405630
-26.208300 1.375490 1.351950
-25.372999 2.222990 0.260765
-4.893970 -0.776228 0.813780
-15.323200 1.884100 0.329584
-6.226460 -0.765583 0.673867
-12.772800 2.025830 0.457716
-8.704680 -0.762613 0.641432
-12.198500 2.374430 0.532950
-10.203300 2.358840 1.341590
-25.771200 -0.450447 0.454633
-8.762680 2.351110 1.317340
-26.094801 0.456066 1.313740
-26.205099 1.375080 0.206136
-4.111780 -0.800253 0.243680
-4.894850 -0.776228 0.760584
-15.331900 1.884830 0.308632
-6.243430 -0.767533 0.629178
-12.773100 2.025510 0.427915
-8.718160 -0.763659 0.599619
-12.216400 2.377480 0.497993
-10.218800 2.361990 1.250460
-25.751699 -0.450028 0.424602
-8.775800 2.354220 1.206630
-25.681801 0.448771 1.221510
-26.193600 1.374240 0.225374
-4.887820 -0.774976 0.708067
-15.356200 1.887510 0.285015
-6.204810 -0.762658 0.584228
-12.767300 2.024260 0.398388
-8.739510 -0.765402 0.555461
-12.232200 2.380150 0.459659
-10.201000 2.357490 1.159750
-25.738001 -0.449714 0.394313
-8.784940 2.356290 1.113010
-25.698000 0.448981 1.129900
-26.193701 1.374030 1.121180
-26.203800 2.294640 0.208984
-4.904360 -0.777479 0.651778
-15.358700 1.887510 0.263611
-6.237550 -0.766558 0.539072
-12.755500 2.022070 0.366706
-8.712980 -0.762961 0.513418
-12.249800 2.383200 0.424453
-10.212300 2.359740 1.069650
-25.735901 -0.449609 0.363486
-8.782410 2.355250 1.027870
-25.703501 0.449015 1.038140
-26.189501 1.373610 1.030250
-26.221500 2.295860 0.191245
-4.867520 -0.771535 0.583077
-14.906600 1.831700 0.241845
-6.210620 -0.763146 0.494392
-12.753300 2.021450 0.335828
-8.702260 -0.761916 0.473096
-12.259300 2.384730 0.391181
-10.229300 2.363340 0.722632
-18.983400 -0.331596 0.332241
-8.768180 2.351110 0.938504
-25.716999 0.449190 0.946719
-26.192900 1.373610 0.942286
-26.196899 2.293420 0.174748
-4.881980 -0.773725 0.530544
-14.894600 1.829990 0.220867
-6.231260 -0.765583 0.450151
-12.762900 2.022700 0.307391
-8.715270 -0.762961 0.429474
-12.237300 2.380150 0.355270
-10.224700 2.361990 0.653046
-18.889799 -0.329920 0.301766
-8.773150 2.352150 0.850048
-25.760099 0.449888 0.855022
-26.188101 1.373190 0.851223
-26.212000 2.294460 0.157450
-4.874660 -0.772473 0.478676
-14.900400 1.830480 0.198988
-6.228030 -0.765096 0.405784
-12.770300 2.023640 0.276586
-8.704340 -0.761916 0.387066
-12.248500 2.382060 0.319636
-10.227800 2.362440 0.271678
-8.791520 2.356810 0.767705
-26.174801 1.372350 0.759262
-26.198900 2.293070 0.140320
-4.871230 -0.771848 0.426945
-14.911900 1.831700 0.177766
-6.208810 -0.762658 0.362873
-12.751800 2.020510 0.246201
-8.705250 -0.761916 0.344584
-12.259600 2.383970 0.285880
-10.234700 2.363790 0.523677
-18.865900 -0.329432 0.242895
-8.805890 2.360430 0.680800
-26.173201 1.372140 0.672122
-26.191299 2.292200 0.124468
-4.883520 -0.773725 0.377545
-14.915200 1.831940 0.157779
-6.233180 -0.765583 0.320187
-12.737200 2.018000 0.217332
-8.706020 -0.761916 0.304268
-12.274400 2.386640 0.252132
-10.243400 2.365590 0.213130
-8.783480 2.354220 0.589434
-26.175400 1.372140 0.585083
-26.185400 2.291500 0.108623
-4.899710 -0.776228 0.328300
-14.926300 1.833160 0.135586
-6.213840 -0.763146 0.275939
-12.748100 2.019570 0.186599
-8.690790 -0.760521 0.263395
-12.267500 2.385110 0.216292
-10.240300 2.364690 0.394330
-18.825001 -0.328664 0.182468
-8.784170 2.354220 0.498215
-26.185301 1.372560 0.489033
-26.183399 2.291150 0.090372
-4.884270 -0.773725 0.276268
-14.931300 1.833650 0.114405
-6.242070 -0.766558 0.231474
-12.750900 2.019880 0.156046
-8.679440 -0.759475 0.218256
-12.258600 2.383200 0.179472
-10.281900 2.374130 0.328194
-18.802299 -0.328245 0.151739
-8.780890 2.353180 0.402115
-26.179001 1.372140 0.397511
-26.177000 2.290450 0.073203
-4.876660 -0.772473 0.221305
-14.916300 1.831700 0.091409
-6.234510 -0.765583 0.184795
-12.755600 2.020510 0.126153
-8.707820 -0.761916 0.175716
-12.276900 2.386640 0.143173
-10.253300 2.367380 0.259278
-18.803301 -0.328245 0.119711
-8.792970 2.356290 0.310418
-26.154301 1.370780 0.306206
-26.184200 2.290980 0.056590
-4.912440 -0.778105 0.169123
-14.907100 1.830480 0.069158
-6.191120 -0.760221 0.140139
-12.744400 2.018630 0.095713
-8.704220 -0.761567 0.132882
-12.279400 2.387020 0.107359
-10.251800 2.366940 0.193436
-18.784100 -0.327896 0.088900
-8.781750 2.353180 0.219174
-26.161200 1.371100 0.214673
-26.169201 2.289580 0.039346
-4.900750 -0.776228 0.117197
-14.921500 1.832180 0.047944
-6.242930 -0.766558 0.095665
-12.746700 2.018940 0.065118
-8.676610 -0.759126 0.090263
-12.313200 2.393510 0.071602
-10.256000 2.367830 0.068561
-10.072200 -0.175816 0.058271
-8.785870 2.354220 0.127872
-26.165800 1.371310 0.123314
-26.167801 2.289410 0.022204
-4.892960 -0.774976 0.065110
-14.921800 1.832180 0.026035
-6.215270 -0.763146 0.051107
-12.731200 2.016440 0.034760
-8.658860 -0.757558 0.047205
-12.293800 2.389690 0.037121
-10.128000 -0.530791 0.035809
-10.258100 2.368280 0.033448
-10.086400 -0.176060 0.027578
-8.778290 2.352150 0.041107
-26.168100 1.371410 0.036543
-26.172001 2.289760 0.005978
-4.893000 -0.774976 0.015611
-14.906100 1.830230 0.005427
-6.219290 -0.763633 0.008889
-12.731300 2.016440 0.006044
-8.656930 -0.757383 0.006422
-12.266400 2.384350 0.001792
-10.266000 2.370080 -0.000001
-18.771099 -0.327651 -0.001532
-8.782200 2.353180 -0.050206
-26.150101 1.370470 -0.054833
-26.181900 2.290630 -0.011101
-4.893000 -0.774976 -0.036432
-14.910000 1.830720 -0.016240
-6.203390 -0.761683 -0.035623
-12.756900 2.020510 -0.024096
-8.629010 -0.754943 -0.036430
-12.278100 2.386640 -0.034043
-10.265900 2.370080 -0.065537
-18.775000 -0.327721 -0.032244
-8.797590 2.357320 -0.141451
-26.143700 1.370160 -0.146192
-26.175600 2.290100 -0.028090
-4.877120 -0.772473 -0.088488
-14.911800 1.830970 -0.037822
-6.191390 -0.760221 -0.080105
-12.748800 2.019260 -0.054405
-8.658750 -0.757558 -0.079338
-12.285800 2.388170 -0.069878
-10.265700 2.370080 -0.131074
-18.774700 -0.327721 -0.062926
-8.793560 2.356290 -0.232831
-26.157101 1.370890 -0.237508
-26.169001 2.289580 -0.045370
-4.904650 -0.776854 -0.140691
-14.927200 1.832920 -0.059547
-6.203130 -0.761683 -0.124470
-12.734600 2.017070 -0.084279
-8.622650 -0.754420 -0.122440
-12.307000 2.392360 -0.105710
-10.265400 2.370080 -0.196609
-18.774099 -0.327721 -0.093560
-8.787500 2.354740 -0.319473
-26.148199 1.370470 -0.328829
-26.166000 2.289410 -0.062440
-4.900510 -0.776228 -0.192743
-14.922700 1.832430 -0.081356
-6.214790 -0.763146 -0.166673
-12.732200 2.016750 -0.114165
-8.606370 -0.753026 -0.165450
-12.310500 2.393130 -0.141490
-10.261100 2.369180 -0.258866
-18.773399 -0.327721 -0.122645
-8.783270 2.353700 -0.410749
-26.146900 1.370470 -0.420097
-26.160700 2.289060 -0.078373
-4.880530 -0.773099 -0.242164
-14.918000 1.831940 -0.101769
-6.202580 -0.761683 -0.211083
-12.729600 2.016440 -0.144607
-8.629820 -0.755117 -0.206174
-12.304000 2.391980 -0.175849
-10.280000 2.373680 -0.324567
-18.782301 -0.327896 -0.153371
-8.786660 2.354740 -0.501938
-26.141300 1.370260 -0.507005
-26.167101 2.289760 -0.095641
-4.892070 -0.774976 -0.294156
-14.913100 1.831450 -0.123025
-6.182340 -0.759246 -0.255794
-12.742600 2.018630 -0.172545
-8.595430 -0.752154 -0.249438
-12.318900 2.395030 -0.211813
-10.283300 2.374580 -0.390333
-18.791100 -0.328070 -0.183961
-8.782200 2.353700 -0.593001
-26.131399 1.369840 -0.598567
-26.175100 2.290630 -0.112171
-4.868010 -0.771222 -0.346303
-14.915900 1.831940 -0.144325
-6.169960 -0.757784 -0.300085
-12.733700 2.017380 -0.202828
-8.606720 -0.753200 -0.292719
-12.329700 2.397320 -0.247377
-10.268800 2.371430 -0.456606
-18.817600 -0.328559 -0.214804
-8.789230 2.355770 -0.684217
-26.129200 1.369840 -0.689877
-26.170900 2.290450 -0.129791
-4.891290 -0.774976 -0.397414
-14.878900 1.827550 -0.166716
-6.201170 -0.761683 -0.344266
-12.722700 2.015810 -0.232978
-8.609950 -0.753549 -0.335862
-12.332500 2.398090 -0.283436
-10.275700 2.373230 -0.524285
-18.887800 -0.329816 -0.245322
-8.782640 2.354220 -0.775418
-26.126600 1.369840 -0.780576
-26.146400 2.288540 -0.145916
-4.859210 -0.769971 -0.450006
-14.899300 1.830230 -0.187758
-6.180710 -0.759246 -0.388916
-12.729300 2.017070 -0.261936
-8.573240 -0.750411 -0.378847
-12.329300 2.397710 -0.319606
-10.284400 2.375480 -0.590215
-18.885900 -0.329816 -0.276037
-8.783660 2.354740 -0.866881
-26.131701 1.370260 -0.872103
-26.151501 2.289230 -0.163009
-4.862620 -0.770596 -0.502215
-14.903600 1.830970 -0.209600
-6.187950 -0.760221 -0.433346
-12.727900 2.017070 -0.293221
-8.568240 -0.750062 -0.421615
-12.320100 2.396180 -0.356041
-10.298800 2.379080 -0.306359
-8.772990 2.352150 -0.958383
-26.136499 1.370680 -0.967211
-26.128201 2.287490 -0.181124
-4.869890 -0.771848 -0.553127
-14.872000 1.827310 -0.230458
-6.167350 -0.757784 -0.478070
-12.734200 2.018320 -0.323277
-8.571140 -0.750411 -0.466991
-12.324300 2.397320 -0.393786
-10.297400 2.379080 -0.337648
-8.789240 2.356810 -1.045770
-26.151100 0.456834 -1.049130
-26.121099 1.370050 -1.059540
-26.152599 2.289930 -0.197961
-4.865280 -0.771222 -0.607307
-14.861900 1.826330 -0.252735
-6.158530 -0.756809 -0.521868
-12.716600 2.015810 -0.353687
-8.581910 -0.751457 -0.511468
-12.357900 2.404190 -0.429323
-10.286200 2.376830 -0.368408
-8.789940 2.357320 -1.131960
-26.135500 0.456625 -1.140830
-26.129200 1.370680 -1.151080
-26.154699 2.290450 -0.214094
-4.864590 -0.771222 -0.273684
-6.169550 -0.758271 -0.566429
-12.718700 2.016440 -0.382217
-8.548770 -0.748668 -0.552095
-12.348300 2.402670 -0.501518
-11.173400 -0.586163 -0.463518
-10.286700 2.377280 -0.398737
-8.780880 2.355250 -1.223460
-26.137400 0.456730 -1.232030
-26.125099 1.370680 -1.237150
-26.136801 2.289230 -0.231261
-4.867760 -0.771848 -0.738331
-15.484000 1.903360 -0.294649
-6.156670 -0.756809 -0.610350
-12.706800 2.014880 -0.409799
-8.531540 -0.747273 -0.595194
-12.346300 2.402670 -0.489458
-10.116300 -0.530791 -0.499990
-10.296700 2.379980 -0.491936
-10.094500 -0.176409 -0.429197
-8.775570 2.354220 -1.314090
-26.121000 0.456520 -1.323620
-26.128599 1.371100 -1.327870
-26.122400 2.288360 -0.247446
-4.851140 -0.769345 -0.793595
-15.505100 1.906280 -0.317156
-6.175420 -0.759246 -0.655310
-12.716400 2.016750 -0.438756
-8.514140 -0.745879 -0.638188
-12.342200 2.402290 -0.523733
-10.094600 -0.529745 -0.536536
-10.306600 2.382680 -1.364860
-26.130400 -0.456730 -0.460231
-8.781740 2.356290 -1.405470
-26.120199 0.456590 -1.410250
-26.124100 1.371100 -1.419590
-26.127501 2.289230 -0.263733
-4.838420 -0.767468 -0.846628
-15.482400 1.903840 -0.337840
-6.158420 -0.757296 -0.697152
-12.708200 2.015810 -0.468913
-8.520510 -0.746576 -0.681481
-12.343800 2.403050 -0.639149
-11.540500 -0.605736 -0.571862
-10.293000 2.379980 -1.451170
-26.119699 -0.456625 -0.489564
-8.784020 2.357320 -1.492660
-26.125401 0.456764 -1.500860
-26.108999 1.370570 -1.512160
-26.146299 2.291320 -0.282514
-4.884850 -0.774976 -0.897621
-15.473600 1.903110 -0.357568
-6.145380 -0.755834 -0.741508
-12.705700 2.015810 -0.498186
-8.510870 -0.745879 -0.723559
-12.361100 2.406860 -0.669924
-11.410700 -0.599037 -0.605991
-10.291000 2.379980 -1.544810
-26.156401 -0.457358 -0.520680
-8.789970 2.359390 -1.583960
-26.122000 0.456799 -1.592230
-26.107599 1.370780 -1.598500
-26.135099 2.290800 -0.298596
-4.868060 -0.772473 -0.952846
-15.490200 1.905550 -0.379507
-6.152020 -0.756809 -0.785611
-12.699100 2.015190 -0.525422
-8.493260 -0.744484 -0.766580
-12.356500 2.406480 -0.705534
-11.340500 -0.595479 -0.641910
-10.288800 2.379980 -1.633860
-26.115000 -0.456730 -0.550393
-8.772680 2.355250 -1.675140
-26.116301 0.456799 -1.684000
-26.111799 1.371310 -1.688940
-26.117500 2.289760 -0.314820
-4.855160 -0.770596 -1.007690
-15.498600 1.907010 -0.400979
-6.150660 -0.756809 -0.830320
-12.702200 2.016130 -0.555845
-8.503300 -0.745530 -0.808682
-12.338100 2.403430 -0.744329
-11.326000 -0.594851 -0.678589
-10.298200 2.382680 -1.725140
-26.111099 -0.456764 -0.581267
-8.774560 2.356290 -1.766150
-26.108299 0.456764 -1.775410
-26.109800 1.371520 -1.780500
-26.117399 2.290280 -0.330957
-4.842200 -0.768719 -1.061510
-15.491100 1.906520 -0.424351
-6.176940 -0.760221 -0.875333
-12.709100 2.017690 -0.584428
-8.485410 -0.744136 -0.851880
-12.337200 2.403810 -0.781515
-11.289500 -0.593071 -0.715343
-10.307400 2.385380 -1.816970
-26.114901 -0.456939 -0.611624
-8.768620 2.355250 -1.857850
-26.110001 0.456904 -1.866540
-26.103399 1.371520 -1.872800
-26.126900 2.291670 -0.348990
-4.856780 -0.771222 -1.115570
-15.487300 1.906520 -0.445338
-6.167510 -0.759246 -0.919406
-12.702000 2.017070 -0.613182
-8.471390 -0.743090 -0.894797
-12.332200 2.403430 -0.818890
-11.258800 -0.591606 -0.751034
-10.301000 2.384480 -1.908850
-26.118401 -0.457113 -0.643357
-8.781850 2.359390 -1.949120
-26.105400 0.456939 -1.957650
-26.096800 1.371520 -1.964290
-26.124201 2.292020 -0.365051
-4.843710 -0.769345 -1.170080
-15.489200 1.907260 -0.465365
-6.146120 -0.756809 -0.963737
-12.698700 2.017070 -0.643049
-8.473180 -0.743438 -0.939626
-12.352400 2.408010 -0.857578
-11.247900 -0.591187 -0.787284
-10.302200 2.385380 -0.674599
-8.787250 2.361460 -2.041020
-26.108400 0.457113 -2.048260
-26.083799 1.371200 -2.055310
-26.115200 2.291850 -0.383820
-4.866040 -0.773099 -1.225540
-15.502800 1.909450 -0.486816
-6.144460 -0.756809 -1.008220
-12.697300 2.017380 -0.671047
-8.451020 -0.741695 -0.982582
-12.347100 2.407630 -0.868730
-10.892400 -0.572660 -0.823240
-10.299400 2.385380 -2.090340
-26.094400 -0.456939 -0.704805
-8.779070 2.359910 -2.132140
-26.101101 0.457113 -2.140440
-26.090401 1.371930 -2.145970
-26.101900 2.291320 -0.400479
-4.860740 -0.772473 -1.280960
-15.514300 1.911400 -0.509898
-6.162500 -0.759246 -1.035880
-12.492900 1.985470 -0.701357
-8.440560 -0.740998 -1.025510
-12.341700 2.407250 -0.859510
-10.300300 2.386280 -0.734961
-8.770780 2.358360 -2.223070
-26.091499 0.457079 -2.232350
-26.092699 1.372460 -2.242470
-26.103800 2.292200 -0.416259
-4.835620 -0.768719 -1.335110
-15.509700 1.911400 -0.527995
-6.121130 -0.754371 -1.081350
-12.510800 1.988910 -0.729096
-8.418210 -0.739255 -1.070740
-12.337800 2.407250 -0.975548
-11.218200 -0.590140 -0.897764
-10.302900 2.387630 -2.273150
-26.087200 -0.457079 -0.766580
-8.779710 2.361460 -2.319920
-26.097099 0.457323 -1.143630
-12.839500 0.675553 -2.334290
-26.103701 2.292890 -0.434546
-4.849870 -0.771222 -1.139010
-12.687300 1.564070 -0.550426
-6.119150 -0.754371 -1.133340
-12.599400 2.003610 -0.758476
-8.415610 -0.739255 -1.111150
-12.304700 2.401520 -1.015240
-11.220700 -0.590454 -0.932492
-10.286100 2.384480 -1.003630
-11.070900 -0.194036 -0.796523
-8.769280 2.359390 -1.132700
-12.280000 0.215258 -1.122340
-12.121400 0.637975 -1.131750
-12.176800 1.069920 -0.447701
-4.816940 -0.766216 -1.129360
-12.128100 1.495580 -0.571083
-6.121250 -0.754859 -1.135210
-12.145000 1.931970 -0.788591
-8.420850 -0.739952 -1.136760
-12.138700 2.369850 -1.054500
-11.239100 -0.591606 -0.966596
-10.283000 2.384480 -1.038710
-11.029500 -0.193373 -0.826948
-8.764520 2.358880 -1.165640
-12.172500 0.213443 -1.163670
-12.129600 0.638603 -1.170410
-12.155100 1.068360 -0.467168
-4.842870 -0.770596 -1.172830
-12.135900 1.497040 -0.592447
-6.119220 -0.754859 -1.173570
-12.121500 1.928840 -0.814588
-8.398360 -0.738209 -1.180450
-12.148300 2.372520 -1.095660
-11.255300 -0.592652 -1.003810
-10.293100 2.387630 -1.068880
-10.960300 -0.192221 -0.856195
-8.763650 2.359390 -1.202650
-12.134700 0.212850 -1.207000
-12.135400 0.639127 -1.211250
-12.135100 1.066960 -0.480479
-4.813780 -0.766216 -1.213070
-12.131900 1.497040 -0.613528
-6.125120 -0.755834 -1.218250
-12.140900 1.932590 -0.841507
-8.371670 -0.736117 -1.220930
-12.146300 2.372900 -1.136380
-11.285400 -0.594432 -1.037740
-10.287800 2.387180 -1.101500
-10.900800 -0.191243 -0.887559
-8.768300 2.361460 -1.245610
-12.136400 0.212954 -1.250780
-12.145000 0.639859 -1.253930
-12.154800 1.069050 -0.498092
-4.819930 -0.767468 -1.257860
-12.151300 1.499970 -0.635314
-6.126890 -0.756321 -1.260620
-12.136600 1.932590 -0.867206
-8.349020 -0.734374 -1.261490
-12.124400 2.369470 -1.176380
-11.287300 -0.594746 -1.074860
-10.295800 2.389880 -1.132060
-10.825300 -0.189987 -0.919167
-8.774760 2.364050 -1.287760
-12.130000 0.212919 -1.292110
-12.130600 0.639336 -1.296350
-12.150400 1.069050 -0.514073
-4.810310 -0.766216 -1.298580
-12.131100 1.498020 -0.656273
-6.120690 -0.755834 -1.303610
-12.138000 1.933530 -0.898045
-8.361790 -0.735769 -1.304220
-12.123800 2.370230 -1.219840
-11.320800 -0.596735 -1.109540
-10.280300 2.387180 -1.166180
-10.787500 -0.189394 -0.949375
-8.767650 2.363020 -1.330960
-12.133400 0.213059 -1.334230
-12.124100 0.639231 -1.337890
-12.137800 1.068360 -0.531728
-4.816340 -0.767468 -1.342880
-12.144200 1.500210 -0.678072
-6.122310 -0.756321 -1.345750
-12.131400 1.933220 -0.926789
-8.354640 -0.735420 -1.347840
-12.130900 2.372520 -1.264650
-11.364200 -0.599247 -1.145630
-10.278300 2.387630 -1.206710
-10.809200 -0.189847 -0.980619
-8.770050 2.364570 -1.374880
-12.142500 0.213303 -1.376540
-12.119300 0.639231 -1.380250
-12.133100 1.068360 -0.547643
-4.806600 -0.766216 -1.771690
-15.525900 1.918710 -0.697635
-6.104120 -0.754371 -1.449420
-12.662400 2.018630 -0.952321
-8.319690 -0.732631 -1.414100
-12.334800 2.413350 -1.181060
-10.270400 2.386730 -1.396360
-12.124000 -0.213024 -1.011220
-8.766570 2.364570 -3.043240
-26.062901 0.458021 -3.052580
-26.063801 1.375280 -3.057560
-26.066999 2.296210 -0.566722
-4.824280 -0.769345 -1.825190
-15.513700 1.917980 -0.717545
-6.089820 -0.752909 -1.495000
-12.669100 2.020510 -0.980937
-8.300310 -0.731237 -1.457380
-12.331800 2.413730 -1.218050
-10.275900 2.388980 -3.094220
-26.065001 -0.458161 -1.043640
-8.778330 2.368710 -3.134680
-26.056101 0.458091 -3.144970
-26.064899 1.375910 -3.155000
-26.071501 2.297600 -0.583925
-4.818250 -0.768719 -1.879090
-15.505300 1.917740 -0.739754
-6.095160 -0.753884 -1.540880
-12.677500 2.022700 -1.009900
-8.296840 -0.731237 -1.500900
-12.312700 2.411060 -1.256180
-10.275200 2.389880 -3.186160
-26.062000 -0.458300 -1.072870
-8.763130 2.365610 -3.231390
-26.054399 0.458265 -3.234700
-26.043900 1.375390 -3.247950
-26.076099 2.298990 -0.596828
-4.784820 -0.763713 -1.935410
-15.494300 1.917250 -0.763568
-6.104230 -0.755346 -1.587330
-12.689700 2.025510 -1.037870
-8.285350 -0.730539 -1.542650
-12.297600 2.409150 -1.291550
-10.266900 2.388980 -3.280600
-26.078501 -0.458789 -1.103700
-8.761250 2.366120 -3.320300
-26.063400 0.458614 -3.326610
-26.040300 1.375810 -3.339970
-26.072500 2.299690 -0.615704
-4.806320 -0.767468 -1.989060
-15.505500 1.919440 -0.781277
-6.081970 -0.752909 -1.630360
-12.674300 2.023950 -1.066780
-8.281680 -0.730539 -1.583670
-12.294400 2.409540 -1.325590
-10.262600 2.388980 -3.370330
-26.056900 -0.458614 -1.137250
-8.780330 2.372340 -3.412810
-26.063499 0.458824 -3.420080
-26.048401 1.376850 -3.426930
-26.065300 2.300040 -0.631446
-4.796310 -0.766216 -2.044980
-15.512300 1.921150 -0.802502
-6.079210 -0.752909 -1.675110
-12.672400 2.024570 -1.094240
-8.278100 -0.730539 -1.626070
-12.284900 2.408770 -1.362940
-10.269500 2.391680 -3.461530
-26.047001 -0.458649 -1.166110
-8.762910 2.368710 -3.504840
-26.059401 0.458963 -3.513120
-26.052099 1.377690 -3.518690
-26.059099 2.300560 -0.651890
-4.821480 -0.770596 -2.100190
-15.512900 1.922120 -0.822118
-6.064570 -0.751446 -1.719600
-12.668500 2.024890 -1.120990
-8.258430 -0.729145 -1.667620
-12.269400 2.406860 -1.399300
-10.268500 2.392580 -3.553780
-26.044701 -0.458824 -1.199570
-8.779840 2.374410 -3.595780
-26.047001 0.458963 -3.605680
-26.051600 1.378320 -3.610450
-26.052500 2.301090 -0.668717
-4.819180 -0.770596 -2.155420
-15.513400 1.923100 -0.844923
-6.073460 -0.752909 -1.765170
-12.672200 2.026450 -1.149530
-8.252500 -0.728971 -1.709620
-12.257700 2.405720 -1.435950
-10.269300 2.393930 -3.645780
-26.040001 -0.458963 -1.228060
-8.760290 2.370260 -3.687240
-26.038200 0.459033 -3.697720
-26.046700 1.378740 -3.703900
-26.057501 2.302650 -0.678854
-4.769880 -0.763087 -2.210390
-15.511600 1.923830 -0.864997
-6.062610 -0.751934 -1.810790
-12.675700 2.028020 -1.176920
-8.238570 -0.728099 -1.753230
-12.257500 2.406860 -1.471510
-10.262300 2.393480 -3.740640
-26.054800 -0.459452 -1.261660
-8.776980 2.375960 -3.780410
-26.041000 0.459312 -3.784080
-26.034300 1.378740 -3.797990
-26.066099 2.304570 -0.699492
-4.794850 -0.767468 -2.263670
-15.497900 1.923100 -0.886728
-6.063490 -0.752421 -1.852240
-12.665700 2.027390 -1.206830
-8.242300 -0.728796 -1.796290
-12.253200 2.407250 -1.506190
-10.249400 2.391680 -3.826440
-26.038300 -0.459382 -1.290750
-8.772750 2.375960 -3.869390
-26.046101 0.459627 -3.877290
-26.036800 1.379580 -3.888660
-26.050800 2.304400 -0.717138
-4.804220 -0.769345 -2.315630
-15.494300 1.923590 -0.905655
-6.052660 -0.751446 -1.896150
-12.657200 2.027080 -1.233820
-8.226210 -0.727750 -1.836620
-12.245300 2.406860 -1.541040
-10.250200 2.393030 -3.919090
-26.036699 -0.459592 -1.322520
-8.775830 2.378030 -3.961180
-26.038401 0.459731 -3.969350
-26.031000 1.379990 -3.975630
-26.041700 2.304750 -0.733307
-4.797780 -0.768719 -2.371510
-15.497900 1.925050 -0.926176
-6.045540 -0.750959 -1.941520
-12.658300 2.028330 -1.264720
-8.245710 -0.729842 -1.878460
-12.233000 2.405720 -1.576520
-10.242800 2.392580 -4.007210
-26.005100 -0.459278 -1.349610
-8.748250 2.371820 -4.053280
-26.032301 0.459871 -4.070040
-26.080099 1.383340 -4.069890
-26.049299 2.306660 -0.748829
-4.787390 -0.767468 -2.426510
-15.495400 1.925780 -0.943892
-6.020690 -0.748278 -1.984470
-12.643700 2.027080 -1.292870
-8.237310 -0.729494 -1.919630
-12.216600 2.403810 -1.613470
-10.244900 2.394380 -0.598503
-3.791640 1.028550 -0.541618
-3.396620 -0.794077 -0.599347
-3.741850 0.465297 -0.593445
-3.692620 0.726982 -0.594861
-3.697310 -0.196260 -0.595605
-3.697820 0.864712 -0.597197
-3.703590 -0.065481 -0.593262
-3.675100 0.997489 -0.599157
-3.678960 0.065063 -0.553471
-3.394700 -0.794077 -0.599709
-3.674270 0.195108 -0.601833
-3.687280 -0.726219 -0.595353
-3.643580 0.322999 -0.589943
-3.606520 -0.578808 -0.588023
-3.590850 0.446773 -0.600853
-3.665180 -0.456035 -0.598870
-3.649090 0.585691 -0.600155
-3.656920 -0.324219 -0.591053
-3.597530 0.708665 -0.596743
-3.628210 -0.192701 -0.588246
-3.572650 0.835918 -0.592885
-3.596910 -0.063631 -0.588159
-3.564360 0.967983 -0.588723
-3.540840 0.062654 -0.564725
-3.392850 -0.794077 -0.586614
-3.520560 0.187049 -0.589211
-3.536150 -0.696835 -0.587764
-3.523670 0.312541 -0.591163
-3.540240 -0.568483 -0.587818
-3.516430 0.437755 -0.588760
-3.518290 -0.437998 -0.587794
-3.508760 0.563477 -0.589520
-3.515300 -0.311843 -0.591290
-3.525850 0.694926 -0.594222
-3.539540 -0.188095 -0.593308
-3.530330 0.826470 -0.585235
-3.478580 -0.061572 -0.590350
-3.505240 0.952454 -0.598066
-3.521020 0.062340 -0.570685
-3.356280 -0.785979 -0.597559
-3.510620 0.186630 -0.597221
-3.504940 -0.691110 -0.598664
-3.509710 0.311495 -0.597817
-3.501050 -0.562538 -0.598418
-3.504580 0.436536 -0.605385
-3.541650 -0.441167 -0.600705
-3.510580 0.564103 -0.598760
-3.495540 -0.310274 -0.601886
-3.510110 0.692255 -0.608880
-3.547180 -0.188619 -0.603933
-3.514680 0.823321 -0.602793
-3.508050 -0.062131 -0.603237
-3.506970 0.953489 -0.609256
-3.508960 0.062165 -0.577977
-3.325360 -0.779230 -0.609395
-3.502500 0.186316 -0.609452
-3.502830 -0.691110 -0.609544
-3.499750 0.310797 -0.610713
-3.502840 -0.563164 -0.609894
-3.494540 0.435561 -0.615629
-3.523760 -0.439217 -0.618332
-3.535600 0.568483 -0.611644
-3.497360 -0.310623 -0.613797
-3.506060 0.691873 -0.614708
-3.507660 -0.186630 -0.615525
-3.508720 0.822421 -0.617375
-3.515660 -0.062305 -0.614080
-3.493320 0.950384 -0.522362
-2.950420 -0.802857 -0.620105
-3.498930 0.062026 -0.587538
-3.311810 -0.776531 -0.621966
-3.502320 0.186421 -0.622018
-3.502610 -0.691492 -0.624547
-3.513290 0.312192 -0.623975
-3.506520 -0.564103 -0.623133
-3.498250 0.436292 -0.626183
-3.511820 -0.437998 -0.626158
-3.508140 0.564416 -0.625949
-3.506970 -0.311669 -0.625341
-3.500030 0.691110 -0.628355
-3.513350 -0.187049 -0.627082
-3.502710 0.821521 -0.626822
-3.497740 -0.062026 -0.627976
-3.500660 0.952972 -0.531284
-2.940970 -0.800786 -0.635873
-3.516430 0.062375 -0.600483
-3.317410 -0.778331 -0.633832
-3.498160 0.186316 -0.634591
-3.502350 -0.691873 -0.638229
-3.518930 0.312889 -0.637270
-3.510150 -0.565041 -0.634631
-3.492150 0.435805 -0.638082
-3.507660 -0.437755 -0.638046
-3.503990 0.564103 -0.639258
-3.510640 -0.312192 -0.640019
-3.511340 0.693782 -0.640256
-3.509180 -0.186944 -0.639305
-3.500500 0.821521 -0.641544
-3.509300 -0.062270 -0.643669
-3.517450 0.958148 -0.535946
-2.908700 -0.792504 -0.645242
-3.498450 0.062096 -0.610291
-3.305710 -0.776081 -0.646765
-3.499860 0.186525 -0.644316
-3.486600 -0.689202 -0.649059
-3.508840 0.312192 -0.650957
-3.515670 -0.566293 -0.649349
-3.503570 0.437511 -0.649598
-3.501510 -0.437267 -0.649912
-3.499800 0.563790 -0.650781
-3.504470 -0.311843 -0.651195
-3.503300 0.692637 -0.653598
-3.512810 -0.187258 -0.651163
-3.496330 0.821071 -0.653057
-3.503100 -0.062200 -0.656298
-3.517080 0.958666 -0.546809
-2.910610 -0.793539 -0.657820
-3.498140 0.062131 -0.624710
-3.318880 -0.779680 -0.659845
-3.505540 0.186944 -0.659027
-3.497840 -0.691873 -0.660565
-3.502640 0.311843 -0.662858
-3.511440 -0.565980 -0.662312
-3.505190 0.437998 -0.664399
-3.512870 -0.438973 -0.662249
-3.501500 0.564416 -0.661527
-3.494350 -0.311146 -0.664882
-3.508720 0.694163 -0.666600
-3.514430 -0.187467 -0.665181
-3.503610 0.823321 -0.666163
-3.508780 -0.062340 -0.664350
-3.495910 0.953489 -0.556239
-2.904890 -0.792504 -0.667912
-3.488090 0.061991 -0.634245
-3.309140 -0.777881 -0.674336
-3.514990 0.187572 -0.671602
-3.497440 -0.692255 -0.673539
-3.504230 0.312192 -0.674126
-3.507280 -0.565667 -0.673182
-3.499070 0.437511 -0.676420
-3.512600 -0.439217 -0.672971
-3.491410 0.563164 -0.675231
-3.499840 -0.311843 -0.675398
-3.500710 0.693018 -0.678251
-3.512200 -0.187467 -0.678644
-3.510950 0.825570 -0.678406
-3.506430 -0.062340 -0.676917
-3.495460 0.954007 -0.565130
-2.899240 -0.791469 -0.681616
-3.493590 0.062131 -0.643178
-3.293520 -0.774731 -0.684302
-3.500850 0.186944 -0.685833
-3.508690 -0.694926 -0.685156
-3.501970 0.312192 -0.687124
-3.508790 -0.566293 -0.685010
-3.494750 0.437267 -0.687148
-3.502430 -0.438242 -0.687820
-3.502610 0.565354 -0.686065
-3.493670 -0.311495 -0.689507
-3.507970 0.694926 -0.689735
-3.505890 -0.187258 -0.689767
-3.502820 0.824221 -0.691415
-3.507970 -0.062410 -0.692105
-3.508240 0.958148 -0.575623
-2.899140 -0.791986 -0.693417
-3.489220 0.062096 -0.657712
-3.306540 -0.778331 -0.696908
-3.500400 0.187049 -0.697693
-3.504340 -0.694545 -0.699323
-3.509330 0.313063 -0.697823
-3.498620 -0.565041 -0.699148
-3.502070 0.438486 -0.699759
-3.501950 -0.438486 -0.699654
-3.498250 0.565041 -0.700600
-3.502980 -0.312541 -0.704060
-3.517090 0.697216 -0.701969
-3.503460 -0.187258 -0.702373
-3.502310 0.824671 -0.704443
-3.509450 -0.062480 -0.706630
-3.517170 0.961254 -0.584591
-2.891430 -0.790433 -0.710748
-3.512260 0.062549 -0.669637
-3.306140 -0.778781 -0.709520
-3.499900 0.187153 -0.709922
-3.501890 -0.694545 -0.712757
-3.512730 0.313586 -0.712783
-3.509710 -0.567231 -0.712554
-3.505450 0.439217 -0.712375
-3.501430 -0.438730 -0.710678
-3.489980 0.564103 -0.711631
-3.494660 -0.312018 -0.715941
-3.512680 0.696835 -0.714194
-3.500990 -0.187258 -0.713814
-3.496010 0.823771 -0.713486
-3.491300 -0.062200 -0.716580
-3.503320 0.958148 -0.595459
-2.893160 -0.791469 -0.719373
-3.492130 0.062235 -0.681174
-3.303780 -0.778781 -0.723346
-3.505230 0.187572 -0.721744
-3.497470 -0.694163 -0.722999
-3.500460 0.312715 -0.724630
-3.505270 -0.566919 -0.724384
-3.501000 0.438973 -0.725397
-3.502810 -0.439217 -0.724060
-3.493280 0.565041 -0.724230
-3.494100 -0.312192 -0.726603
-3.502480 0.695308 -0.728847
-3.510210 -0.187886 -0.727203
-3.499230 0.825120 -0.727297
-3.496620 -0.062340 -0.727230
-3.493230 0.956078 -0.604762
-2.887280 -0.790433 -0.734020
-3.501340 0.062445 -0.690300
-3.289940 -0.776081 -0.734966
-3.502810 0.187572 -0.737580
-3.512220 -0.697598 -0.736033
-3.501820 0.313063 -0.736454
-3.500780 -0.566606 -0.737010
-3.500390 0.439217 -0.740895
-3.515800 -0.441167 -0.737677
-3.500530 0.566606 -0.738067
-3.499350 -0.312889 -0.739230
-3.501840 0.695690 -0.741095
-3.507650 -0.187886 -0.741025
-3.504290 0.826920 -0.740543
-3.502010 -0.062480 -0.738810
-3.490800 0.956078 -0.615643
-2.888930 -0.791469 -0.744377
-3.493020 0.062340 -0.699987
-3.281910 -0.774731 -0.747189
-3.500230 0.187572 -0.750245
-3.511540 -0.697979 -0.750336
-3.508970 0.313935 -0.747646
-3.496390 -0.566293 -0.746951
-3.490160 0.438242 -0.751718
-3.509440 -0.440680 -0.751547
-3.505650 0.567857 -0.751114
-3.500650 -0.313238 -0.750838
-3.499370 0.695690 -0.750207
-3.493450 -0.187258 -0.751823
-3.498000 0.826020 -0.753605
-3.503320 -0.062549 -0.754243
-3.503310 0.960219 -0.626037
-2.890650 -0.792504 -0.760377
-3.507990 0.062654 -0.712265
-3.283260 -0.775631 -0.758555
-3.493690 0.187363 -0.760220
-3.501360 -0.696453 -0.763660
-3.514250 0.314632 -0.760686
-3.497620 -0.566919 -0.759974
-3.491410 0.438730 -0.761851
-3.497100 -0.439461 -0.761676
-3.493360 0.566293 -0.764415
-3.505930 -0.313935 -0.766816
-3.513990 0.699124 -0.764101
-3.498620 -0.187677 -0.761948
-3.485840 0.823771 -0.764974
-3.496760 -0.062480 -0.768120
-3.508210 0.962289 -0.634877
-2.882790 -0.790951 -0.769605
-3.491650 0.062410 -0.727499
-3.297880 -0.779680 -0.771607
-3.494920 0.187572 -0.772014
-3.496770 -0.696071 -0.776353
-3.513510 0.314807 -0.775876
-3.508440 -0.569109 -0.773873
-3.496490 0.439705 -0.775342
-3.500230 -0.440192 -0.773010
-3.486820 0.565667 -0.775786
-3.499350 -0.313586 -0.778652
-3.509370 0.698743 -0.778041
-3.503730 -0.188095 -0.779185
-3.505990 0.829170 -0.776307
-3.490160 -0.062410 -0.779102
-3.499850 0.960736 -0.645358
-2.882440 -0.791469 -0.781788
-3.488940 0.062410 -0.736022
-3.282010 -0.776531 -0.785551
-3.500010 0.187991 -0.785074
-3.497880 -0.696835 -0.785119
-3.495220 0.313412 -0.786385
-3.498000 -0.567857 -0.787381
-3.499580 0.440436 -0.787991
-3.499440 -0.440436 -0.786913
-3.491810 0.566919 -0.786244
-3.488840 -0.312889 -0.789170
-3.498970 0.697216 -0.792905
-3.512680 -0.188723 -0.791418
-3.503250 0.829170 -0.791131
-3.499130 -0.062619 -0.788330
-3.483920 0.957113 -0.654558
-2.876400 -0.790433 -0.793518
-3.484240 0.062375 -0.748773
-3.285120 -0.777881 -0.799096
-3.503080 0.188305 -0.800336
-3.508520 -0.699506 -0.799088
-3.500230 0.314109 -0.798151
-3.493310 -0.567544 -0.799149
-3.494870 0.440192 -0.802859
-3.508280 -0.441898 -0.800420
-3.494820 0.567857 -0.800642
-3.495790 -0.313761 -0.800501
-3.492370 0.696453 -0.805162
-3.509890 -0.188723 -0.803642
-3.500460 0.829170 -0.804236
-3.500250 -0.062689 -0.803084
-3.492440 0.960219 -0.666336
-2.881630 -0.792504 -0.806126
-3.483400 0.062410 -0.756718
-3.267300 -0.774282 -0.810868
-3.498330 0.188200 -0.812135
-3.503790 -0.699124 -0.813102
-3.505180 0.314807 -0.811233
-3.494350 -0.568170 -0.808198
-3.478530 0.438486 -0.814201
-3.501590 -0.441411 -0.813510
-3.495850 0.568483 -0.814194
-3.498790 -0.314284 -0.816249
-3.504850 0.699506 -0.815142
-3.497330 -0.188200 -0.814528
-3.491940 0.827820 -0.817359
-3.501310 -0.062759 -0.817028
-3.497140 0.962289 -0.676832
-2.881170 -0.793022 -0.821027
-3.492240 0.062619 -0.769011
-3.268430 -0.775181 -0.822160
-3.491590 0.187991 -0.823461
-3.497110 -0.698361 -0.825790
-3.504260 0.314981 -0.824332
-3.495350 -0.568796 -0.822616
-3.485340 0.439705 -0.825506
-3.494860 -0.440923 -0.826617
-3.496840 0.569109 -0.828694
-3.505620 -0.315155 -0.829835
-3.507710 0.700651 -0.829185
-3.502240 -0.188619 -0.826712
-3.489080 0.827820 -0.829575
-3.498440 -0.062759 -0.830122
-3.498030 0.963324 -0.685540
-2.873150 -0.791469 -0.837392
-3.506860 0.062933 -0.782227
-3.273310 -0.776981 -0.835271
-3.492580 0.188200 -0.832923
-3.482760 -0.696071 -0.837089
-3.497480 0.314632 -0.838830
-3.502050 -0.570360 -0.837091
-3.492100 0.440923 -0.839089
-3.497750 -0.441655 -0.836052
-3.482400 0.567231 -0.839996
-3.498840 -0.314807 -0.843908
-3.512430 0.702177 -0.842806
-3.505150 -0.188933 -0.839342
-3.488070 0.828270 -0.840846
-3.491640 -0.062689 -0.841875
-3.493230 0.962807 -0.695110
-2.868860 -0.790951 -0.846801
-3.492250 0.062724 -0.795486
-3.278130 -0.778781 -0.849814
-3.499350 0.188723 -0.848781
-3.495100 -0.699124 -0.848822
-3.492600 0.314458 -0.850115
-3.495260 -0.569734 -0.852562
-3.502660 0.442629 -0.852703
-3.500580 -0.442386 -0.850073
-3.487140 0.568483 -0.850316
-3.488140 -0.314109 -0.855233
-3.505650 0.701414 -0.856458
-3.508010 -0.189247 -0.853825
-3.494580 0.830519 -0.853029
-3.488680 -0.062689 -0.853604
-3.488390 0.962289 -0.704197
-2.862660 -0.789916 -0.860420
-3.495100 0.062829 -0.803195
-3.260200 -0.775181 -0.863459
-3.502180 0.189038 -0.861917
-3.495920 -0.699887 -0.861963
-3.493490 0.314807 -0.862310
-3.492280 -0.569734 -0.863355
-3.493880 0.441898 -0.869683
-3.516860 -0.444823 -0.864138
-3.491820 0.569734 -0.863923
-3.490950 -0.314632 -0.864161
-3.489300 0.698743 -0.868217
-3.503060 -0.189142 -0.868364
-3.501030 0.832769 -0.868092
-3.497320 -0.062899 -0.867638
-3.492890 0.964360 -0.715121
-2.863940 -0.790951 -0.873099
-3.494020 0.062864 -0.811734
-3.246030 -0.772482 -0.874708
-3.495270 0.188828 -0.876021
-3.500510 -0.701414 -0.878508
-3.507850 0.316375 -0.874976
-3.491160 -0.570047 -0.873613
-3.483150 0.440923 -0.877121
-3.494550 -0.442386 -0.879691
-3.502200 0.571924 -0.878531
-3.497580 -0.315504 -0.878250
-3.493880 0.700269 -0.880440
-3.500010 -0.189142 -0.879628
-3.494200 0.831869 -0.881760
-3.500090 -0.063003 -0.880298
-3.491710 0.964877 -0.727012
-2.868910 -0.793022 -0.886274
-3.494820 0.062933 -0.824977
-3.250730 -0.774282 -0.885312
-3.488480 0.188619 -0.888234
-3.497430 -0.701414 -0.889766
-3.500900 0.316027 -0.889591
-3.497660 -0.571612 -0.888705
-3.491620 0.442386 -0.889314
-3.491460 -0.442386 -0.888862
-3.489690 0.570360 -0.892210
-3.500280 -0.316027 -0.891897
-3.496500 0.701414 -0.892158
-3.494980 -0.189038 -0.891337
-3.489220 0.831419 -0.892866
-3.495210 -0.062968 -0.893786
-3.496260 0.966948 -0.735098
-2.858870 -0.790951 -0.898854
-3.495740 0.063003 -0.832839
-3.236660 -0.771582 -0.898479
-3.489230 0.188828 -0.898478
-3.486710 -0.699887 -0.900489
-3.491990 0.315504 -0.902172
-3.498510 -0.572237 -0.900775
-3.490570 0.442629 -0.902376
-3.494260 -0.443117 -0.900049
-3.482740 0.569734 -0.904922
-3.499070 -0.316201 -0.907419
-3.508730 0.704467 -0.906745
-3.503600 -0.189666 -0.904369
-3.491910 0.832769 -0.903055
-3.484330 -0.062829 -0.904530
-3.487510 0.965395 -0.743600
-2.852680 -0.789916 -0.912060
-3.496450 0.063073 -0.849053
-3.252580 -0.776081 -0.912673
-3.493800 0.189247 -0.912020
-3.491310 -0.701414 -0.913575
-3.494770 0.316027 -0.913378
-3.491520 -0.571612 -0.915970
-3.498930 0.444092 -0.915071
-3.493010 -0.443361 -0.913203
-3.483400 0.570360 -0.914499
-3.488340 -0.315504 -0.917668
-3.497940 0.702940 -0.919476
-3.502350 -0.189770 -0.918534
-3.496270 0.834568 -0.917246
-3.488890 -0.062968 -0.914732
-3.476860 0.963324 -0.752071
-2.844470 -0.788363 -0.923237
-3.489380 0.063003 -0.860901
-3.251490 -0.776531 -0.925886
-3.494460 0.189456 -0.925207
-3.491900 -0.702177 -0.926790
-3.495410 0.316375 -0.925561
-3.488310 -0.571612 -0.928687
-3.497630 0.444336 -0.930827
-3.503220 -0.445067 -0.928910
-3.493550 0.572550 -0.929742
-3.496680 -0.316550 -0.928358
-3.489030 0.701796 -0.932724
-3.502970 -0.189980 -0.930732
-3.493040 0.834568 -0.931480
-3.493400 -0.063108 -0.931345
-3.490450 0.967983 -0.763997
-2.849290 -0.790433 -0.936448
-3.490000 0.063073 -0.867192
-3.229640 -0.772032 -0.937469
-3.491370 0.189456 -0.939938
-3.498130 -0.704085 -0.941055
-3.499850 0.317073 -0.938245
-3.486970 -0.571924 -0.938826
-3.486700 0.443361 -0.939950
-3.488450 -0.443604 -0.943059
-3.499990 0.574115 -0.942461
-3.495340 -0.316724 -0.941555
-3.489560 0.702559 -0.943384
-3.493910 -0.189666 -0.942411
-3.487890 0.834118 -0.945667
-3.499940 -0.063282 -0.943419
-3.489200 0.968501 -0.774952
-2.850330 -0.791469 -0.949065
-3.490730 0.063143 -0.877897
-3.226750 -0.772032 -0.948601
-3.484220 0.189247 -0.953691
-3.500510 -0.705230 -0.956935
-3.510000 0.318293 -0.952401
-3.493370 -0.573489 -0.951428
